# .PCD v0.7
VERSION 0.7
FIELDS x y z
SIZE 4 4 4
TYPE F F F
COUNT 1 1 1
WIDTH 1772
HEIGHT 1
VIEWPOINT 0 0 0 1 0 0 0
POINTS 1772
DATA ascii
0.140686 0.085256 0.622022
0.137102 0.082203 0.617507
0.134390 0.082956 0.619142
0.136225 0.079361 0.622604
0.137521 0.087401 0.625326
0.136320 0.085354 0.625807
0.136488 0.080251 0.619040
0.138132 0.082236 0.626318
0.138520 0.083229 0.621170
0.137823 0.083673 0.623151
0.131059 0.083549 0.626095
0.131044 0.085823 0.624729
0.131341 0.087011 0.626309
0.129093 0.081262 0.625620
0.136412 0.083816 0.630730
0.137591 0.081320 0.626146
0.132385 0.081901 0.625135
0.131508 0.082929 0.633514
0.130065 0.078487 0.624115
0.138854 0.085855 0.627027
0.132784 0.080789 0.631267
0.123322 0.086182 0.626139
0.132115 0.083568 0.629798
0.131318 0.084125 0.625984
0.131416 0.084360 0.627848
0.126988 0.081549 0.631992
0.135446 0.083184 0.627750
0.131673 0.083897 0.629349
0.125493 0.084433 0.634574
0.128246 0.081317 0.628877
0.126097 0.087383 0.633867
0.125814 0.078471 0.630636
0.123585 0.078627 0.631049
0.129249 0.078946 0.629475
0.125684 0.079088 0.632242
0.130577 0.083223 0.635365
0.126869 0.078845 0.638069
0.125807 0.080927 0.637788
0.119982 0.087286 0.633261
0.131067 0.080652 0.630385
0.124826 0.084438 0.637610
0.124808 0.079251 0.637983
0.122955 0.082042 0.639418
0.125294 0.085030 0.630250
0.118242 0.086203 0.636156
0.121832 0.080420 0.632134
0.121233 0.088564 0.636029
0.119258 0.084938 0.637292
0.125280 0.089537 0.635284
0.117663 0.080734 0.567731
0.120240 0.089321 0.563617
0.119801 0.078278 0.566333
0.124981 0.084645 0.563958
0.116641 0.090449 0.560314
0.122141 0.084190 0.565018
0.128046 0.086927 0.567693
0.124817 0.090924 0.564137
0.123995 0.084537 0.562796
0.123763 0.089609 0.565332
0.127858 0.082865 0.565640
0.125027 0.083298 0.565033
0.127218 0.084641 0.564221
0.117768 0.082064 0.569112
0.130389 0.085466 0.570722
0.127597 0.087693 0.570901
0.126241 0.082151 0.567609
0.129068 0.083325 0.564880
0.126687 0.083817 0.567159
0.129826 0.084491 0.572208
0.123997 0.089064 0.570433
0.131350 0.089016 0.570157
0.124564 0.087363 0.565353
0.128948 0.089234 0.567817
0.134148 0.083097 0.573006
0.132841 0.086958 0.572896
0.128549 0.085146 0.572801
0.134508 0.088306 0.567511
0.130871 0.085719 0.570958
0.132752 0.087817 0.574622
0.133997 0.083088 0.572164
0.135166 0.082982 0.573449
0.139825 0.085082 0.576939
0.124734 0.084293 0.574080
0.133396 0.084499 0.572588
0.132188 0.089091 0.576397
0.133516 0.084641 0.576033
0.137287 0.082193 0.577274
0.137538 0.084677 0.579820
0.131885 0.083452 0.578761
0.132764 0.087647 0.582034
0.128936 0.084735 0.577907
0.136978 0.087218 0.577518
0.139654 0.086385 0.576537
0.136031 0.079340 0.577005
0.134947 0.084067 0.577900
0.139778 0.089021 0.578587
0.132738 0.084984 0.578745
0.136183 0.082777 0.578469
0.144760 0.083860 0.580289
0.136152 0.089843 0.579037
0.138911 0.084009 0.579817
0.139196 0.093518 0.584021
0.138562 0.086721 0.584273
0.137614 0.085264 0.584848
0.137269 0.087542 0.583862
0.139784 0.089149 0.582750
0.136838 0.083852 0.590277
0.136560 0.087999 0.586851
0.138148 0.088302 0.581401
0.139107 0.085488 0.584456
0.140938 0.092344 0.586132
0.138487 0.087612 0.585301
0.135833 0.081645 0.589047
0.138870 0.088087 0.587619
0.139787 0.083591 0.589245
0.146833 0.085177 0.588641
0.139574 0.081497 0.586331
0.140322 0.084054 0.587484
0.140785 0.084561 0.591677
0.138154 0.079308 0.591760
0.142051 0.090384 0.597880
0.138025 0.092081 0.588443
0.141674 0.083271 0.592741
0.137368 0.086289 0.586110
0.145912 0.089553 0.590302
0.142931 0.086210 0.588446
0.145224 0.084921 0.595455
0.141046 0.090455 0.591619
0.141136 0.084615 0.589612
0.140740 0.084025 0.593652
0.139583 0.082319 0.597757
0.143127 0.084246 0.594379
0.138367 0.087482 0.589591
0.143729 0.090365 0.591277
0.142107 0.079855 0.594763
0.136745 0.082932 0.597034
0.143436 0.087044 0.595152
0.139192 0.085112 0.601229
0.146874 0.085481 0.595390
0.147216 0.084268 0.596089
0.138246 0.087966 0.599637
0.145699 0.087836 0.601671
0.133959 0.087203 0.600872
0.146216 0.089765 0.608711
0.141894 0.083163 0.603887
0.143619 0.090196 0.598926
0.142128 0.083984 0.605562
0.140159 0.084053 0.603748
0.140022 0.083444 0.601610
0.141232 0.092271 0.607504
0.139736 0.084955 0.600474
0.141516 0.088046 0.601150
0.139129 0.090363 0.607971
0.146789 0.083088 0.608507
0.139826 0.082939 0.610820
0.143748 0.083850 0.607328
0.143866 0.091573 0.606977
0.139806 0.088429 0.605644
0.142282 0.089443 0.615563
0.140005 0.086691 0.607034
0.139384 0.089022 0.612061
0.135988 0.085715 0.605188
0.141273 0.084632 0.614938
0.135357 0.086287 0.618282
0.139443 0.086307 0.611688
0.143909 0.089273 0.615095
0.139905 0.081059 0.615314
0.140946 0.087503 0.610637
0.146195 0.081734 0.613735
0.138709 0.087652 0.615914
0.139197 0.085512 0.612173
0.141786 0.087839 0.616967
0.138799 0.084122 0.619075
0.140946 0.085283 0.620587
0.134487 0.084401 0.616607
0.141613 0.084361 0.616879
0.139426 0.084732 0.625105
0.142932 0.088482 0.622536
0.139358 0.088301 0.626561
0.138366 0.088288 0.617103
0.140969 0.088904 0.620170
0.136093 0.087144 0.619795
0.134098 0.087895 0.620106
0.139689 0.085699 0.623990
0.140484 0.089420 0.622029
0.139224 0.085076 0.621243
0.134547 0.087889 0.618531
0.131314 0.085214 0.616849
0.133052 0.086687 0.619781
0.139246 0.085611 0.623114
0.136535 0.091836 0.625055
0.135079 0.084913 0.625335
0.138125 0.085764 0.624441
0.132578 0.082006 0.629869
0.131914 0.090084 0.621435
0.138057 0.082603 0.621508
0.132306 0.079619 0.629151
0.133092 0.088922 0.629030
0.134494 0.083706 0.630963
0.135656 0.087234 0.625112
0.135784 0.085030 0.628837
0.130590 0.084802 0.625576
0.134469 0.080550 0.630479
0.131449 0.086095 0.626344
0.129239 0.080882 0.624738
0.132999 0.089323 0.626998
0.129373 0.086353 0.633777
0.130892 0.077300 0.633876
0.131804 0.086843 0.631045
0.129971 0.082864 0.631607
0.127539 0.082033 0.633230
0.128473 0.082695 0.629434
0.128773 0.086238 0.629025
0.129515 0.087297 0.631859
0.130325 0.085186 0.638032
0.125502 0.083366 0.634900
0.122644 0.084862 0.635596
0.127412 0.081625 0.632903
0.116833 0.084493 0.629641
0.130885 0.089352 0.632022
0.126285 0.081869 0.635589
0.119905 0.089850 0.639127
0.127985 0.089739 0.634992
0.125247 0.087989 0.630984
0.122516 0.084650 0.638953
0.127460 0.088465 0.633812
0.124551 0.085358 0.633300
0.121301 0.083951 0.637011
0.117066 0.087518 0.637570
0.117438 0.088231 0.563673
0.117157 0.091327 0.564350
0.122882 0.089747 0.560349
0.119385 0.089774 0.563159
0.123651 0.088445 0.564202
0.123172 0.088854 0.562730
0.124870 0.087937 0.565011
0.124629 0.091046 0.563411
0.127062 0.092061 0.563822
0.125201 0.091510 0.571411
0.126975 0.088361 0.566482
0.121277 0.088549 0.570089
0.127888 0.090704 0.567600
0.122372 0.090436 0.567779
0.127392 0.085498 0.575120
0.128677 0.091562 0.571901
0.130998 0.088907 0.566351
0.130176 0.087210 0.572494
0.127320 0.090145 0.569740
0.127703 0.093891 0.568684
0.128140 0.092641 0.567786
0.121274 0.091003 0.569751
0.128859 0.092381 0.569639
0.129752 0.091537 0.566660
0.134006 0.089172 0.574332
0.128912 0.088824 0.573860
0.135542 0.091055 0.574032
0.132831 0.086009 0.573785
0.130402 0.087585 0.571680
0.135005 0.087741 0.570642
0.129754 0.088274 0.574698
0.137113 0.095770 0.577235
0.132813 0.089699 0.569664
0.132342 0.088613 0.573769
0.130716 0.091734 0.582630
0.134217 0.087050 0.574380
0.134775 0.094199 0.574054
0.141589 0.087648 0.575653
0.135364 0.085795 0.578369
0.136427 0.088188 0.574019
0.137212 0.089239 0.575947
0.137387 0.090865 0.577276
0.134123 0.093569 0.578159
0.136037 0.086484 0.580178
0.139619 0.089919 0.574981
0.136349 0.093457 0.582468
0.132570 0.090681 0.573946
0.136322 0.090313 0.580590
0.137630 0.085841 0.579637
0.139682 0.090505 0.582293
0.133638 0.087549 0.579737
0.138284 0.090655 0.581227
0.138816 0.092491 0.581997
0.138786 0.092797 0.580747
0.137462 0.091719 0.583577
0.141846 0.089581 0.581292
0.138313 0.086776 0.587159
0.138488 0.089611 0.587501
0.135770 0.090698 0.587805
0.142424 0.084321 0.586663
0.136409 0.087663 0.586457
0.141990 0.085098 0.582716
0.136913 0.084291 0.588675
0.134864 0.089790 0.587722
0.140098 0.091813 0.588185
0.140763 0.091023 0.587888
0.141989 0.090617 0.585492
0.146214 0.095523 0.588276
0.134140 0.089613 0.591188
0.139949 0.085177 0.590601
0.141416 0.088522 0.591570
0.136219 0.092364 0.583676
0.141295 0.088218 0.595642
0.139231 0.092813 0.589537
0.138908 0.088898 0.587695
0.142781 0.085719 0.596568
0.138377 0.090211 0.594490
0.141549 0.090766 0.594848
0.139598 0.089166 0.595151
0.142280 0.094048 0.593725
0.141338 0.089771 0.594008
0.143065 0.091667 0.591404
0.141812 0.090854 0.595881
0.146398 0.089141 0.594414
0.149879 0.092152 0.595845
0.143675 0.089650 0.598618
0.149825 0.091107 0.596347
0.140143 0.091968 0.598238
0.145016 0.086362 0.599898
0.137019 0.085887 0.596085
0.138520 0.090154 0.596003
0.136651 0.089524 0.605481
0.138701 0.086705 0.601952
0.139171 0.089297 0.600702
0.145368 0.085665 0.599828
0.142385 0.095684 0.600118
0.147732 0.083322 0.605419
0.141612 0.091308 0.601859
0.141141 0.094800 0.600320
0.141870 0.089190 0.608587
0.144033 0.088496 0.600861
0.142438 0.088499 0.608108
0.143293 0.093476 0.604897
0.143237 0.083596 0.607104
0.144774 0.096239 0.601574
0.146427 0.090083 0.608777
0.137940 0.089647 0.614123
0.141480 0.087391 0.608640
0.141958 0.086028 0.607896
0.144859 0.096601 0.611812
0.139901 0.093687 0.611694
0.144764 0.092447 0.613663
0.143677 0.089234 0.608640
0.143289 0.088653 0.613689
0.139433 0.091059 0.611047
0.140502 0.090566 0.611518
0.138599 0.091313 0.611994
0.138248 0.091839 0.613013
0.136870 0.087084 0.614865
0.140117 0.085455 0.610778
0.141166 0.089091 0.615205
0.141684 0.093465 0.619432
0.138964 0.086468 0.614986
0.138218 0.088906 0.614331
0.140040 0.088774 0.616199
0.138639 0.084698 0.616952
0.137991 0.087534 0.624408
0.138589 0.094073 0.615362
0.139112 0.090507 0.618409
0.136913 0.091083 0.618852
0.138365 0.091629 0.623666
0.135071 0.087055 0.619915
0.141303 0.088674 0.622596
0.137399 0.091634 0.623357
0.136067 0.090530 0.617944
0.133385 0.086715 0.620201
0.134073 0.092502 0.623177
0.137472 0.091464 0.622591
0.135480 0.083111 0.622154
0.141180 0.087702 0.622888
0.137477 0.090931 0.622861
0.137564 0.091801 0.621645
0.133532 0.088363 0.625183
0.129678 0.088197 0.632994
0.140854 0.091466 0.619960
0.138987 0.089730 0.629905
0.136083 0.088925 0.628987
0.130746 0.091597 0.628777
0.134533 0.089007 0.623304
0.135256 0.091386 0.626846
0.128806 0.090690 0.632111
0.134588 0.086785 0.629246
0.131730 0.083830 0.628103
0.131748 0.091372 0.628872
0.134910 0.098286 0.627722
0.127589 0.091106 0.628624
0.132223 0.090958 0.628060
0.132566 0.093446 0.633165
0.131010 0.088056 0.631766
0.129183 0.094394 0.627030
0.132694 0.087039 0.633349
0.133841 0.095033 0.629001
0.129174 0.087307 0.632320
0.128532 0.088321 0.633079
0.128881 0.089484 0.628009
0.129725 0.090153 0.637730
0.123541 0.087558 0.631431
0.119290 0.089699 0.633328
0.129969 0.095016 0.637414
0.124758 0.087323 0.638121
0.119523 0.088034 0.631381
0.125232 0.093163 0.631998
0.123487 0.086419 0.637548
0.119299 0.087046 0.634963
0.124246 0.096250 0.633806
0.124006 0.089318 0.632039
0.123331 0.092649 0.631410
0.120026 0.087314 0.634443
0.121843 0.095686 0.635478
0.124863 0.092949 0.631346
0.115848 0.095680 0.562864
0.118169 0.090695 0.567196
0.126275 0.096815 0.567184
0.123667 0.095584 0.563225
0.124614 0.095191 0.562148
0.121000 0.099228 0.563757
0.116690 0.097520 0.565585
0.124650 0.099423 0.568427
0.130688 0.094781 0.571762
0.124345 0.095530 0.570213
0.125340 0.098232 0.569453
0.121759 0.090912 0.566698
0.130777 0.092470 0.562937
0.126034 0.090353 0.564530
0.126535 0.096885 0.569160
0.123378 0.091979 0.567763
0.125285 0.087583 0.567040
0.128955 0.092564 0.567567
0.128126 0.086270 0.566197
0.130552 0.096244 0.565422
0.131692 0.096091 0.567956
0.133970 0.092391 0.569777
0.131855 0.092621 0.569083
0.131714 0.091281 0.566963
0.131393 0.092612 0.567406
0.130351 0.092295 0.572222
0.131305 0.093775 0.574298
0.127020 0.088803 0.572346
0.129938 0.091615 0.572319
0.132445 0.096162 0.571647
0.128749 0.095875 0.572906
0.124222 0.094414 0.574406
0.130251 0.092128 0.570727
0.131983 0.089821 0.578517
0.136952 0.097414 0.576470
0.136575 0.092743 0.571886
0.128479 0.091654 0.571100
0.136237 0.085188 0.578256
0.143752 0.095791 0.574989
0.135378 0.094647 0.577947
0.139066 0.096027 0.577792
0.135366 0.096326 0.577275
0.134916 0.091998 0.583408
0.136807 0.096679 0.575621
0.138805 0.096072 0.586655
0.134176 0.091965 0.573291
0.138010 0.091132 0.578697
0.144675 0.094529 0.582034
0.135820 0.094862 0.582917
0.137190 0.089039 0.577342
0.134034 0.092809 0.579831
0.135924 0.095467 0.573201
0.144635 0.094935 0.586891
0.139438 0.094415 0.585577
0.138096 0.093049 0.584064
0.144623 0.097280 0.580736
0.135308 0.091811 0.589211
0.135505 0.093415 0.583713
0.140956 0.093229 0.589526
0.140236 0.096155 0.590075
0.139960 0.088590 0.580231
0.144139 0.090775 0.589635
0.137573 0.092645 0.585329
0.142888 0.090918 0.589068
0.137441 0.095152 0.583315
0.138270 0.089342 0.585709
0.144177 0.092684 0.587645
0.139153 0.092422 0.587814
0.146458 0.093612 0.589066
0.142861 0.089795 0.592490
0.140220 0.093008 0.594503
0.134829 0.091479 0.587168
0.146796 0.092972 0.591383
0.135394 0.098147 0.587747
0.138418 0.087196 0.592650
0.138563 0.085948 0.593758
0.139037 0.094140 0.592021
0.144765 0.095818 0.590670
0.141210 0.090883 0.591928
0.143392 0.088961 0.600131
0.135610 0.093531 0.599347
0.142047 0.091654 0.593503
0.146556 0.095116 0.594017
0.142837 0.087678 0.600215
0.146642 0.094842 0.602181
0.140470 0.098939 0.605159
0.140610 0.092493 0.600478
0.139112 0.089458 0.599206
0.142618 0.091825 0.598843
0.148695 0.095502 0.595614
0.140089 0.095227 0.598290
0.143386 0.093136 0.600358
0.144296 0.091853 0.603391
0.145749 0.092411 0.601644
0.145962 0.091111 0.601100
0.144079 0.093725 0.599353
0.144422 0.087773 0.606549
0.149504 0.089410 0.602460
0.142978 0.098013 0.608406
0.143423 0.094739 0.606211
0.148356 0.097084 0.609440
0.142421 0.092163 0.604094
0.139993 0.094791 0.599167
0.142137 0.091198 0.603100
0.134216 0.088199 0.607337
0.146272 0.099146 0.605352
0.137061 0.097253 0.605229
0.141377 0.091792 0.605411
0.142534 0.093421 0.608278
0.141266 0.098350 0.605094
0.144767 0.090197 0.613643
0.139880 0.086545 0.613089
0.139215 0.091236 0.610877
0.141996 0.095775 0.609102
0.137448 0.094841 0.609392
0.141153 0.092524 0.614972
0.142863 0.099204 0.614134
0.137704 0.091198 0.605092
0.140750 0.092949 0.617211
0.140025 0.095252 0.614279
0.140259 0.097407 0.608599
0.138655 0.087105 0.618341
0.141324 0.089523 0.613189
0.136433 0.096648 0.616435
0.145722 0.090249 0.617307
0.136554 0.094034 0.617509
0.141074 0.096072 0.616908
0.134983 0.093477 0.619175
0.139114 0.093084 0.615159
0.138781 0.090914 0.620863
0.137789 0.094271 0.617857
0.144879 0.092766 0.618145
0.136626 0.089022 0.617490
0.137369 0.089403 0.619084
0.140471 0.096644 0.621903
0.132994 0.092406 0.618212
0.132318 0.094318 0.621207
0.134029 0.093519 0.623804
0.137832 0.104040 0.625438
0.136771 0.097848 0.621823
0.136401 0.092070 0.624515
0.131811 0.094114 0.622452
0.139378 0.085493 0.619852
0.137090 0.093160 0.629524
0.135451 0.088969 0.623525
0.129283 0.092786 0.625555
0.132943 0.095136 0.623061
0.132199 0.092529 0.625161
0.129942 0.092692 0.627805
0.131276 0.096091 0.626619
0.131226 0.093380 0.626630
0.133605 0.097886 0.632085
0.132159 0.088495 0.631392
0.125287 0.098153 0.621887
0.129547 0.087342 0.630676
0.139408 0.093684 0.633209
0.134301 0.091848 0.629542
0.130470 0.093392 0.633158
0.131328 0.097216 0.633952
0.130177 0.093201 0.632752
0.126329 0.092601 0.634767
0.128932 0.095876 0.636966
0.128804 0.095500 0.629431
0.130987 0.096602 0.627717
0.133261 0.089024 0.629246
0.123913 0.092999 0.631179
0.121681 0.093871 0.630953
0.129434 0.090290 0.634671
0.129613 0.087528 0.636009
0.121961 0.092143 0.640874
0.125248 0.085465 0.633286
0.124043 0.092854 0.638209
0.122816 0.091139 0.637243
0.120505 0.095107 0.631259
0.123614 0.096953 0.631625
0.125293 0.092167 0.631562
0.119843 0.091165 0.634492
0.123761 0.092494 0.640639
0.120202 0.091578 0.631811
0.121853 0.096891 0.633478
0.122624 0.098078 0.560961
0.115050 0.095507 0.564212
0.121120 0.093618 0.560342
0.118381 0.100369 0.563935
0.118372 0.098775 0.562932
0.121945 0.097013 0.564258
0.123268 0.098235 0.568089
0.119846 0.095085 0.567324
0.126649 0.094386 0.563719
0.119963 0.092561 0.565531
0.126430 0.097703 0.569471
0.122751 0.094417 0.565902
0.125009 0.096044 0.564641
0.125692 0.094725 0.564833
0.128116 0.096862 0.571219
0.129429 0.097787 0.566128
0.127879 0.096757 0.565234
0.132878 0.094307 0.573228
0.124211 0.096667 0.565267
0.130803 0.101035 0.564120
0.134856 0.099989 0.568653
0.127249 0.092969 0.567673
0.133636 0.093073 0.567317
0.133112 0.100026 0.566880
0.124739 0.098796 0.565033
0.131052 0.092470 0.572171
0.133958 0.099463 0.570890
0.133375 0.096337 0.573773
0.126269 0.095945 0.567110
0.132609 0.093823 0.575454
0.135407 0.096651 0.575493
0.130700 0.095999 0.576382
0.135180 0.093498 0.576677
0.136208 0.090220 0.575288
0.130288 0.095217 0.572441
0.131602 0.099101 0.571860
0.134163 0.098861 0.573185
0.132962 0.095221 0.571083
0.138362 0.099276 0.571914
0.130994 0.091273 0.579395
0.134985 0.096297 0.578218
0.134316 0.093982 0.577855
0.135737 0.094575 0.575010
0.133298 0.098679 0.581950
0.136480 0.101365 0.581899
0.135648 0.091964 0.574583
0.135731 0.094769 0.580850
0.141511 0.093657 0.578824
0.134114 0.094120 0.585672
0.138947 0.097866 0.578334
0.138694 0.092801 0.581557
0.138176 0.092586 0.579904
0.137429 0.102238 0.582364
0.142376 0.099423 0.581936
0.135930 0.094184 0.579066
0.136454 0.100560 0.584418
0.139384 0.099369 0.581055
0.136996 0.095829 0.584897
0.142532 0.095946 0.581420
0.137959 0.097558 0.587499
0.140644 0.095485 0.582206
0.139907 0.095944 0.585369
0.141596 0.092372 0.590048
0.138344 0.098692 0.587987
0.143770 0.093457 0.582738
0.141155 0.093385 0.595452
0.135572 0.093212 0.586012
0.142042 0.095382 0.589375
0.136000 0.094951 0.591979
0.142486 0.101472 0.589884
0.137643 0.095664 0.589154
0.142902 0.096174 0.586812
0.136870 0.096309 0.589981
0.140265 0.096332 0.590714
0.139191 0.095679 0.593969
0.145405 0.096749 0.591436
0.143232 0.098774 0.587384
0.142443 0.098783 0.592015
0.140684 0.095715 0.592281
0.142930 0.100822 0.593181
0.140999 0.096698 0.594494
0.148279 0.096420 0.594764
0.140117 0.099736 0.601263
0.139982 0.093792 0.596683
0.145287 0.097157 0.594452
0.142601 0.095215 0.594096
0.146859 0.098091 0.601344
0.140838 0.101166 0.600307
0.143536 0.094577 0.598941
0.147342 0.093746 0.602151
0.148072 0.091551 0.598854
0.138623 0.096721 0.596825
0.141894 0.094694 0.597433
0.142409 0.097539 0.601042
0.143840 0.097314 0.601693
0.140082 0.102911 0.601897
0.146828 0.101016 0.605286
0.137303 0.096319 0.606094
0.141739 0.099857 0.599446
0.140718 0.098055 0.599262
0.142844 0.097608 0.608862
0.148649 0.095533 0.604143
0.138302 0.097184 0.605204
0.140945 0.092327 0.605641
0.141901 0.095110 0.601444
0.143434 0.092068 0.608997
0.142215 0.095402 0.602525
0.146582 0.098334 0.607226
0.141428 0.093693 0.608161
0.133908 0.093793 0.606407
0.143014 0.097416 0.611088
0.144344 0.096528 0.607675
0.135021 0.091852 0.616675
0.142559 0.100657 0.610807
0.143392 0.097377 0.612835
0.144329 0.096832 0.611914
0.144479 0.097916 0.615522
0.137480 0.098097 0.611508
0.140067 0.095868 0.613569
0.139978 0.095971 0.610832
0.139153 0.097221 0.612746
0.139166 0.090537 0.614330
0.147123 0.100956 0.617409
0.140446 0.099136 0.617955
0.137396 0.099588 0.614003
0.136398 0.096640 0.616117
0.138910 0.092133 0.619316
0.137446 0.097621 0.619231
0.139012 0.094490 0.617210
0.140760 0.095412 0.622080
0.137210 0.096256 0.619044
0.139489 0.095626 0.617258
0.134385 0.096715 0.619510
0.138766 0.100073 0.622434
0.140682 0.097314 0.622956
0.137093 0.093768 0.624045
0.137646 0.092061 0.617198
0.137334 0.101356 0.616773
0.136273 0.091217 0.622407
0.133604 0.094985 0.622414
0.138296 0.095937 0.621298
0.134247 0.093744 0.627437
0.134496 0.095017 0.625693
0.136491 0.097198 0.628407
0.133045 0.100148 0.626584
0.133356 0.102268 0.628100
0.133534 0.096887 0.629737
0.128162 0.099750 0.628395
0.132292 0.094649 0.626889
0.140762 0.094057 0.632508
0.135762 0.098150 0.624326
0.131923 0.089511 0.632808
0.131989 0.093076 0.627538
0.125544 0.097323 0.626767
0.129407 0.098318 0.629538
0.131560 0.094115 0.631864
0.126497 0.097323 0.629628
0.130142 0.093608 0.630034
0.131312 0.098447 0.631072
0.126408 0.095874 0.635075
0.131868 0.097951 0.628015
0.130267 0.097939 0.633371
0.128030 0.095121 0.631510
0.123010 0.096354 0.637764
0.126007 0.096849 0.632501
0.131139 0.100523 0.636344
0.130046 0.090388 0.631921
0.124737 0.094411 0.634044
0.133386 0.098196 0.628181
0.125210 0.091867 0.632471
0.129883 0.094453 0.637579
0.125606 0.096744 0.636801
0.124896 0.095390 0.638236
0.128255 0.098916 0.633613
0.120050 0.094872 0.636441
0.121835 0.095140 0.635126
0.120840 0.095303 0.630738
0.121334 0.102002 0.634054
0.121494 0.097612 0.635121
0.124548 0.097567 0.638001
0.116150 0.102177 0.561507
0.120958 0.099747 0.564007
0.120250 0.101911 0.565428
0.122063 0.096768 0.559939
0.128261 0.101395 0.566465
0.127426 0.100186 0.569466
0.122195 0.102374 0.563732
0.127775 0.099920 0.560256
0.127505 0.103386 0.561265
0.125319 0.103175 0.566436
0.123594 0.098983 0.566288
0.124192 0.100657 0.567388
0.127721 0.099944 0.568552
0.127440 0.099453 0.567612
0.128173 0.099402 0.564848
0.129222 0.094267 0.567822
0.128568 0.101701 0.568838
0.127965 0.099476 0.567155
0.128364 0.100060 0.567407
0.131523 0.102598 0.574084
0.140184 0.100488 0.570479
0.127544 0.106108 0.566734
0.132154 0.099708 0.573398
0.127138 0.103767 0.572270
0.127858 0.107219 0.572190
0.127710 0.104775 0.571232
0.131411 0.099222 0.571379
0.136973 0.100289 0.572031
0.131084 0.099441 0.576661
0.136824 0.098295 0.573416
0.132805 0.098684 0.571277
0.132610 0.099982 0.569882
0.135821 0.099019 0.576111
0.138831 0.092465 0.575827
0.136457 0.102853 0.574391
0.128366 0.102657 0.575352
0.133432 0.101514 0.570950
0.133735 0.095321 0.575537
0.134720 0.097416 0.572180
0.139977 0.099751 0.576730
0.140098 0.098306 0.577498
0.139972 0.103934 0.585494
0.139063 0.096738 0.578023
0.137447 0.092645 0.577690
0.133544 0.104432 0.582715
0.134808 0.096784 0.578683
0.136997 0.098122 0.581583
0.140091 0.099396 0.579177
0.135935 0.096848 0.582499
0.132536 0.106605 0.581454
0.138108 0.098207 0.574803
0.142747 0.107086 0.579722
0.140639 0.098719 0.582258
0.137806 0.098605 0.583297
0.139119 0.101330 0.584690
0.138832 0.100952 0.579720
0.140250 0.097436 0.586623
0.140160 0.100714 0.584478
0.138599 0.100190 0.583765
0.136372 0.100529 0.582884
0.136052 0.097146 0.586459
0.136623 0.099360 0.585125
0.136840 0.103987 0.584769
0.141009 0.101006 0.586432
0.140354 0.101833 0.588590
0.144054 0.101657 0.585225
0.136999 0.098254 0.588887
0.145075 0.094593 0.589088
0.142369 0.100413 0.589545
0.146819 0.100844 0.586682
0.143684 0.101116 0.590097
0.142206 0.100134 0.589948
0.146548 0.103061 0.590943
0.139742 0.099590 0.588931
0.145291 0.100591 0.591072
0.145672 0.099208 0.594848
0.140368 0.102737 0.592908
0.143589 0.094172 0.593092
0.142666 0.101742 0.587245
0.146255 0.101081 0.603010
0.145093 0.101502 0.596297
0.139209 0.098441 0.596993
0.144000 0.105113 0.596075
0.137175 0.099720 0.594431
0.145439 0.099805 0.588005
0.146318 0.094123 0.600022
0.138180 0.097515 0.606832
0.142343 0.108221 0.594421
0.140203 0.099166 0.599638
0.139908 0.098893 0.597925
0.143407 0.097362 0.599534
0.140633 0.099541 0.599120
0.141667 0.102722 0.600983
0.143512 0.100132 0.600464
0.148100 0.099116 0.600237
0.139013 0.100436 0.604071
0.136715 0.098873 0.602112
0.138132 0.103694 0.607535
0.143895 0.100578 0.601986
0.141411 0.096892 0.607892
0.141041 0.100104 0.604834
0.140739 0.097576 0.602454
0.140480 0.099498 0.604324
0.145713 0.099502 0.608750
0.138727 0.100073 0.607626
0.137403 0.099740 0.604174
0.136632 0.093170 0.613604
0.144449 0.101566 0.606964
0.141358 0.099715 0.610956
0.136922 0.102805 0.607145
0.142921 0.098159 0.613494
0.138126 0.100875 0.612364
0.140620 0.097540 0.614365
0.144084 0.102776 0.602324
0.142643 0.101909 0.611824
0.143415 0.100346 0.613954
0.135292 0.096094 0.608723
0.140959 0.100435 0.616356
0.136252 0.100727 0.612100
0.141213 0.101732 0.612526
0.140269 0.097979 0.613425
0.138058 0.098618 0.613634
0.134013 0.096756 0.619655
0.135407 0.096784 0.616980
0.136992 0.094617 0.612842
0.138703 0.102992 0.622125
0.133978 0.099581 0.626413
0.145501 0.099930 0.615358
0.139619 0.097903 0.614249
0.137203 0.104140 0.618583
0.138137 0.096965 0.623716
0.137637 0.104124 0.618690
0.131974 0.100885 0.623371
0.138996 0.099424 0.619456
0.132388 0.097586 0.616263
0.135976 0.102804 0.620841
0.136316 0.096317 0.623438
0.134215 0.103365 0.622330
0.137928 0.095468 0.621450
0.134420 0.102593 0.623430
0.138127 0.099183 0.625179
0.133479 0.100243 0.631721
0.136287 0.104184 0.620196
0.130801 0.100924 0.625310
0.133210 0.102370 0.620492
0.129050 0.095144 0.628457
0.128626 0.098280 0.623548
0.128650 0.097500 0.625098
0.134600 0.107760 0.627694
0.134706 0.101738 0.624550
0.131852 0.094523 0.632002
0.132042 0.100496 0.632418
0.134042 0.104166 0.631374
0.129932 0.099078 0.633428
0.130938 0.102962 0.633923
0.126910 0.098550 0.631108
0.125358 0.094347 0.636779
0.130627 0.100131 0.627084
0.132406 0.103563 0.628357
0.124469 0.097175 0.631054
0.129013 0.099536 0.635393
0.134117 0.097464 0.630724
0.131319 0.105697 0.632997
0.127113 0.097360 0.625839
0.131299 0.101186 0.631512
0.126231 0.103768 0.631011
0.123046 0.098281 0.634407
0.128042 0.093814 0.634526
0.126660 0.097783 0.639080
0.124093 0.101359 0.629909
0.129991 0.096628 0.636654
0.130429 0.092681 0.639235
0.117283 0.097071 0.636746
0.121111 0.097697 0.635867
0.125793 0.097944 0.637167
0.115123 0.096909 0.632093
0.119064 0.100626 0.636149
0.122069 0.094270 0.633660
0.121742 0.098869 0.639302
0.119360 0.100284 0.636229
0.123638 0.105187 0.563763
0.122441 0.101489 0.567614
0.118994 0.109930 0.561617
0.115796 0.102073 0.562792
0.125627 0.102432 0.559656
0.122302 0.104542 0.564276
0.126138 0.102641 0.565932
0.122123 0.106498 0.570024
0.125688 0.106204 0.562078
0.126380 0.109850 0.560238
0.122410 0.102114 0.568687
0.126921 0.096970 0.567644
0.131809 0.103160 0.566001
0.126155 0.100053 0.565521
0.125584 0.097938 0.568719
0.122583 0.108610 0.568830
0.127763 0.105317 0.565681
0.126473 0.100539 0.568378
0.128639 0.105006 0.569992
0.131350 0.098996 0.569843
0.125871 0.099398 0.570028
0.133181 0.108729 0.568747
0.126570 0.105530 0.569199
0.128530 0.101001 0.571828
0.134237 0.096671 0.568812
0.127820 0.099299 0.571407
0.132257 0.104698 0.574355
0.134018 0.102357 0.570805
0.128783 0.100198 0.573961
0.127576 0.103065 0.573354
0.133676 0.102383 0.567695
0.130749 0.107375 0.578606
0.132517 0.103438 0.575535
0.133456 0.103534 0.572868
0.130582 0.103002 0.572707
0.137471 0.100479 0.573187
0.134881 0.101218 0.576562
0.132648 0.101436 0.577667
0.138540 0.105388 0.583431
0.135479 0.103426 0.578398
0.140356 0.100304 0.578113
0.132119 0.103932 0.573019
0.142899 0.104835 0.577882
0.134249 0.101833 0.577169
0.138277 0.109055 0.579738
0.142623 0.107005 0.579980
0.140211 0.102771 0.578498
0.146016 0.100221 0.575432
0.139779 0.104319 0.584219
0.139122 0.101890 0.579993
0.136942 0.103451 0.577486
0.141098 0.102072 0.580864
0.139988 0.105888 0.583848
0.136012 0.104168 0.581377
0.133083 0.106019 0.585431
0.142586 0.103723 0.579470
0.142246 0.100514 0.583168
0.140658 0.101161 0.580130
0.140812 0.103522 0.588464
0.137960 0.100877 0.589052
0.137039 0.106941 0.578998
0.136270 0.105115 0.581827
0.140725 0.103079 0.585104
0.135974 0.105823 0.581964
0.137279 0.104397 0.589652
0.144734 0.108210 0.589670
0.139135 0.101631 0.589670
0.146644 0.101641 0.584703
0.137170 0.104131 0.592066
0.142456 0.104899 0.588197
0.140023 0.107390 0.587834
0.143065 0.102818 0.592848
0.140444 0.105186 0.593363
0.139192 0.104268 0.592471
0.144464 0.104566 0.591997
0.138442 0.107024 0.585091
0.144133 0.102298 0.595720
0.143148 0.102422 0.596701
0.148048 0.096999 0.592223
0.144590 0.106494 0.593129
0.141075 0.101552 0.592237
0.152721 0.105516 0.601233
0.140800 0.099060 0.596048
0.145859 0.104480 0.597250
0.148274 0.100621 0.598478
0.141239 0.105378 0.598944
0.147563 0.103125 0.599495
0.141728 0.104371 0.599281
0.144592 0.098085 0.604948
0.140831 0.104071 0.600985
0.143619 0.106944 0.604218
0.144408 0.095932 0.600575
0.139632 0.104007 0.602516
0.138405 0.103349 0.597771
0.141022 0.103141 0.601408
0.143832 0.104332 0.602988
0.140182 0.106612 0.605576
0.146124 0.105113 0.603627
0.140368 0.103128 0.604291
0.140115 0.100927 0.603749
0.141675 0.103987 0.604745
0.144209 0.106571 0.606418
0.144600 0.098305 0.610652
0.136536 0.103350 0.609448
0.142100 0.104084 0.604718
0.145851 0.106742 0.612628
0.142809 0.104956 0.606808
0.142645 0.103704 0.613452
0.141004 0.100639 0.603999
0.140620 0.104810 0.612730
0.138146 0.103227 0.609035
0.140507 0.104030 0.612237
0.143157 0.106701 0.610217
0.139532 0.102570 0.609804
0.142686 0.107241 0.615508
0.140161 0.108180 0.609332
0.136878 0.105840 0.615952
0.141539 0.104570 0.617710
0.134572 0.103550 0.612721
0.139277 0.103941 0.613533
0.138525 0.105287 0.616406
0.138989 0.102283 0.615023
0.142191 0.103006 0.614052
0.134088 0.096975 0.619880
0.140092 0.108588 0.617654
0.140200 0.102202 0.619655
0.143228 0.105066 0.616806
0.135447 0.108344 0.615562
0.140136 0.102618 0.616789
0.134480 0.098261 0.621938
0.140911 0.104011 0.619409
0.137959 0.101032 0.624508
0.133734 0.102119 0.621374
0.136788 0.101617 0.618873
0.133963 0.100462 0.622827
0.137049 0.109556 0.618711
0.134711 0.104079 0.618731
0.134323 0.104821 0.629527
0.130306 0.101799 0.625260
0.139242 0.100673 0.629433
0.133612 0.106673 0.624634
0.135044 0.105804 0.626902
0.133321 0.100246 0.624394
0.136597 0.103298 0.619610
0.133662 0.101165 0.628117
0.131186 0.103397 0.613747
0.135698 0.104649 0.625153
0.136848 0.099627 0.623236
0.136754 0.101957 0.624286
0.137967 0.098106 0.627084
0.128047 0.101336 0.621767
0.130415 0.105413 0.628734
0.134261 0.104796 0.625264
0.130802 0.104865 0.626184
0.131215 0.098100 0.624682
0.127643 0.102650 0.630519
0.129460 0.104912 0.628195
0.128328 0.097615 0.622559
0.129183 0.103573 0.630925
0.130964 0.105996 0.629937
0.131748 0.102821 0.627859
0.128004 0.100290 0.631135
0.127281 0.108114 0.630775
0.133111 0.100900 0.626935
0.127191 0.104216 0.632650
0.129515 0.105600 0.630411
0.128336 0.103399 0.627958
0.124589 0.103902 0.633622
0.123440 0.096506 0.636856
0.128015 0.100149 0.636334
0.125376 0.104116 0.634943
0.126286 0.104717 0.639993
0.128086 0.101098 0.633724
0.124353 0.103461 0.631852
0.120667 0.097959 0.637504
0.126906 0.103869 0.638292
0.120895 0.102336 0.638999
0.118853 0.102222 0.633603
0.120350 0.106065 0.638954
0.116850 0.102673 0.640905
0.122295 0.104834 0.562161
0.124219 0.104099 0.567591
0.122512 0.106382 0.564853
0.114699 0.103015 0.564233
0.125293 0.111789 0.563636
0.114630 0.104503 0.555291
0.124933 0.102280 0.567071
0.121090 0.100211 0.562677
0.121155 0.103997 0.562985
0.119262 0.106627 0.561486
0.125449 0.113656 0.566313
0.125338 0.107435 0.565774
0.129022 0.108343 0.561667
0.126706 0.106422 0.565599
0.126783 0.111532 0.571106
0.128114 0.102336 0.563730
0.124026 0.110449 0.569217
0.126729 0.107837 0.566318
0.125883 0.110037 0.569771
0.129182 0.110300 0.569643
0.122914 0.108937 0.568327
0.130741 0.105350 0.570644
0.129012 0.103792 0.565972
0.135962 0.104072 0.566866
0.129306 0.102403 0.573064
0.126987 0.109568 0.572139
0.133097 0.106922 0.570361
0.133326 0.104649 0.574520
0.127594 0.108881 0.572748
0.134538 0.105835 0.572293
0.132929 0.106044 0.575460
0.135819 0.109370 0.574896
0.134174 0.107249 0.575359
0.137369 0.101321 0.573227
0.130100 0.104872 0.575471
0.133129 0.105189 0.574387
0.137122 0.101308 0.579635
0.134753 0.103057 0.572344
0.131962 0.105721 0.576870
0.135885 0.107651 0.580982
0.136273 0.113753 0.580988
0.133264 0.101902 0.569473
0.134915 0.108451 0.579057
0.135577 0.109752 0.576013
0.132056 0.102819 0.578705
0.135807 0.108118 0.577992
0.137914 0.103866 0.581374
0.138539 0.106220 0.579982
0.133591 0.106081 0.578941
0.137183 0.107796 0.585006
0.138135 0.110121 0.582240
0.139174 0.110845 0.581677
0.140980 0.107518 0.577279
0.133060 0.110790 0.581872
0.137464 0.104377 0.584295
0.133636 0.106225 0.587342
0.142551 0.102547 0.584818
0.139056 0.102097 0.590955
0.137300 0.109653 0.586498
0.137040 0.106171 0.584223
0.138045 0.103866 0.587047
0.141935 0.104083 0.589626
0.143374 0.103654 0.580520
0.138711 0.109746 0.585724
0.133811 0.107362 0.587152
0.135680 0.106469 0.582526
0.143601 0.107516 0.583484
0.144675 0.102338 0.583235
0.143313 0.113429 0.586245
0.141888 0.103080 0.593573
0.141323 0.107848 0.589709
0.143352 0.103627 0.591518
0.140939 0.104692 0.595852
0.142396 0.106916 0.593883
0.143765 0.105504 0.591199
0.143182 0.105251 0.587077
0.144005 0.112894 0.585461
0.137730 0.105969 0.597880
0.146328 0.111647 0.594794
0.143271 0.102304 0.598724
0.144907 0.106012 0.597386
0.144142 0.103585 0.598200
0.139055 0.103203 0.594854
0.136282 0.106794 0.597933
0.146679 0.100140 0.597230
0.139351 0.107684 0.602051
0.144939 0.104869 0.596861
0.142257 0.101302 0.596644
0.142800 0.107101 0.599883
0.138968 0.106477 0.598670
0.145142 0.109470 0.598592
0.138257 0.101211 0.596020
0.138520 0.105942 0.603108
0.144066 0.106929 0.604144
0.143704 0.109359 0.605118
0.145045 0.107496 0.605160
0.145664 0.108193 0.601756
0.143281 0.104492 0.603554
0.142299 0.106021 0.602708
0.135518 0.104570 0.611470
0.146724 0.108209 0.600194
0.138188 0.106081 0.605362
0.143469 0.099817 0.609415
0.140141 0.102256 0.609391
0.143649 0.103905 0.607104
0.138914 0.105825 0.606602
0.142881 0.105117 0.604833
0.143216 0.109445 0.606715
0.144121 0.104595 0.606703
0.143088 0.107542 0.611414
0.139027 0.106136 0.607579
0.144466 0.103589 0.609478
0.138035 0.107147 0.612126
0.147732 0.101666 0.610746
0.145978 0.107813 0.613603
0.142398 0.110114 0.608750
0.138698 0.105137 0.616175
0.141619 0.103495 0.611267
0.141182 0.108127 0.609983
0.140540 0.105321 0.615377
0.146378 0.100332 0.613932
0.135316 0.103953 0.619588
0.139656 0.102981 0.613389
0.142809 0.109180 0.618159
0.136069 0.103656 0.617041
0.140469 0.104759 0.615356
0.135816 0.105054 0.613065
0.137023 0.107031 0.617914
0.134457 0.101053 0.619890
0.136272 0.106328 0.620130
0.142719 0.104757 0.614822
0.137956 0.103287 0.621696
0.137515 0.107947 0.618393
0.141661 0.109249 0.624321
0.136675 0.108106 0.624168
0.136931 0.106804 0.622538
0.136148 0.110387 0.621711
0.137657 0.107886 0.620061
0.136573 0.110974 0.620911
0.136177 0.107359 0.624034
0.129858 0.104390 0.617716
0.133478 0.109263 0.623395
0.135683 0.109491 0.623173
0.140422 0.105268 0.627520
0.132401 0.111825 0.627035
0.137326 0.104695 0.625836
0.133440 0.106217 0.629602
0.136742 0.107194 0.629742
0.134537 0.104151 0.620124
0.140704 0.105956 0.625210
0.131858 0.102749 0.626591
0.127585 0.109384 0.625371
0.128315 0.105914 0.628205
0.132540 0.107089 0.626373
0.132999 0.106785 0.622724
0.133388 0.108458 0.630934
0.132959 0.106652 0.628288
0.128186 0.104777 0.631772
0.129304 0.107492 0.627256
0.130426 0.106905 0.631005
0.128829 0.107989 0.630390
0.135953 0.101664 0.628114
0.129870 0.105404 0.632379
0.124921 0.103536 0.637798
0.128215 0.107916 0.632698
0.121978 0.107942 0.627642
0.119256 0.106771 0.628880
0.121259 0.102781 0.636155
0.124895 0.102892 0.637939
0.122095 0.106424 0.634390
0.128195 0.104282 0.631066
0.127913 0.109974 0.632034
0.124432 0.099317 0.630365
0.125727 0.107836 0.640986
0.122234 0.097948 0.635361
0.122184 0.107846 0.638639
0.120497 0.102160 0.634618
0.127321 0.106087 0.642015
0.120370 0.105118 0.634391
0.116862 0.107483 0.637292
0.125328 0.112982 0.563296
0.120649 0.113507 0.557812
0.123572 0.114200 0.557558
0.120366 0.107762 0.563488
0.123650 0.111711 0.562634
0.121965 0.105037 0.564373
0.126309 0.108512 0.560810
0.124695 0.112385 0.567145
0.125351 0.107950 0.563308
0.124421 0.111722 0.562206
0.127766 0.112776 0.570883
0.125054 0.106942 0.567021
0.128486 0.107386 0.558745
0.124821 0.109045 0.566378
0.127460 0.112432 0.565530
0.127905 0.111048 0.561804
0.126835 0.106973 0.566300
0.124489 0.109198 0.569077
0.125892 0.111058 0.566875
0.125431 0.104217 0.571602
0.130578 0.114856 0.565878
0.133504 0.108687 0.569149
0.126334 0.104972 0.569156
0.132102 0.103873 0.573751
0.132126 0.111657 0.569781
0.135679 0.110285 0.571056
0.131127 0.111129 0.576295
0.128650 0.107514 0.574937
0.131312 0.114070 0.573287
0.137751 0.107993 0.570449
0.133300 0.109973 0.574121
0.130210 0.110196 0.572283
0.133827 0.112161 0.570922
0.127307 0.108474 0.573994
0.137816 0.106961 0.579907
0.133388 0.114610 0.574935
0.132440 0.109739 0.575580
0.132498 0.107742 0.580432
0.130861 0.104180 0.580314
0.137207 0.107164 0.578139
0.129022 0.105552 0.574877
0.140633 0.108945 0.577011
0.137616 0.105769 0.576261
0.134853 0.114677 0.576919
0.142452 0.113523 0.578546
0.134221 0.106503 0.578308
0.138165 0.112780 0.577954
0.138677 0.112369 0.582154
0.130470 0.108378 0.582619
0.136940 0.113207 0.579836
0.138449 0.113733 0.579676
0.135988 0.117383 0.584329
0.139285 0.111407 0.580580
0.146270 0.107738 0.583561
0.139364 0.109611 0.586815
0.135821 0.109369 0.578244
0.140173 0.108907 0.587391
0.137763 0.111288 0.589102
0.139493 0.109019 0.588027
0.143396 0.107630 0.584282
0.144419 0.114324 0.588019
0.144117 0.106160 0.583175
0.136418 0.114098 0.588078
0.139628 0.113041 0.584051
0.139915 0.111769 0.585187
0.141015 0.104596 0.593923
0.143298 0.108855 0.591172
0.137852 0.112058 0.586879
0.140054 0.113773 0.588277
0.140876 0.115458 0.591895
0.143799 0.104075 0.588782
0.141358 0.108372 0.590968
0.147173 0.104913 0.595007
0.144547 0.111859 0.588850
0.147985 0.111688 0.588605
0.142085 0.111984 0.594441
0.138960 0.107792 0.590623
0.138946 0.107639 0.594767
0.145501 0.108818 0.592852
0.138226 0.106813 0.597346
0.139516 0.112002 0.597175
0.139345 0.112127 0.590699
0.138088 0.111765 0.596875
0.145805 0.109641 0.597994
0.144729 0.110708 0.594411
0.143276 0.113995 0.599807
0.149683 0.103338 0.602380
0.140725 0.105479 0.591896
0.143558 0.110647 0.595639
0.140562 0.110528 0.598748
0.137068 0.107256 0.601377
0.141722 0.110519 0.596459
0.141087 0.106155 0.600130
0.140530 0.108401 0.605563
0.139159 0.111193 0.601613
0.138777 0.104959 0.602013
0.138839 0.101959 0.604398
0.138333 0.110132 0.598105
0.136183 0.112446 0.603380
0.141727 0.109766 0.602383
0.142878 0.104764 0.603114
0.141672 0.113062 0.603145
0.140963 0.112123 0.608194
0.145777 0.110445 0.605685
0.141165 0.110435 0.602820
0.143401 0.110799 0.608333
0.138998 0.109632 0.605885
0.142050 0.108466 0.610878
0.139748 0.109219 0.606159
0.138018 0.110840 0.611487
0.139607 0.107166 0.610036
0.143117 0.107019 0.611555
0.138387 0.108555 0.610222
0.141392 0.111030 0.613397
0.135068 0.109141 0.615124
0.142889 0.113356 0.611509
0.138380 0.109848 0.609671
0.137383 0.106546 0.613467
0.144355 0.112219 0.614447
0.141395 0.108580 0.613455
0.138847 0.109804 0.618822
0.141683 0.115362 0.614278
0.137715 0.111197 0.617139
0.141222 0.112315 0.614764
0.136403 0.110644 0.616033
0.143178 0.108559 0.615389
0.133636 0.110534 0.619675
0.140414 0.107107 0.616860
0.140663 0.109139 0.616597
0.142960 0.107275 0.619006
0.140701 0.110997 0.621466
0.139841 0.108993 0.620172
0.138796 0.108691 0.621465
0.131246 0.108653 0.619852
0.136155 0.104801 0.618153
0.138475 0.109890 0.623556
0.139203 0.105502 0.623811
0.135509 0.113887 0.617552
0.135241 0.115849 0.621645
0.135572 0.101215 0.627652
0.134851 0.110941 0.623186
0.136005 0.108712 0.627507
0.135457 0.113918 0.629629
0.139641 0.113031 0.621977
0.131532 0.108445 0.630179
0.135068 0.110117 0.634419
0.133053 0.110809 0.623697
0.127606 0.107132 0.623716
0.129990 0.112878 0.632256
0.137515 0.107271 0.631119
0.134644 0.111805 0.623909
0.131683 0.110635 0.622071
0.129598 0.105487 0.633014
0.134024 0.118058 0.626170
0.133804 0.111621 0.630053
0.126639 0.110581 0.633100
0.131558 0.109129 0.630894
0.128290 0.113221 0.630865
0.129775 0.108660 0.628966
0.133953 0.110334 0.626662
0.128323 0.115527 0.628581
0.123835 0.109770 0.627494
0.132355 0.113007 0.637835
0.130313 0.106403 0.631029
0.130288 0.111926 0.633327
0.128021 0.112719 0.636909
0.125486 0.108201 0.634732
0.125300 0.111038 0.630965
0.121894 0.110126 0.631833
0.130806 0.113803 0.634658
0.127168 0.111791 0.633030
0.126701 0.112930 0.630290
0.124145 0.104366 0.634778
0.123241 0.111097 0.633938
0.122355 0.112979 0.638960
0.122628 0.110029 0.635453
0.120333 0.109488 0.635420
0.123083 0.111324 0.639520
0.119350 0.109223 0.636864
0.119494 0.110774 0.638776
0.119267 0.110908 0.555871
0.121812 0.116242 0.556565
0.127968 0.111744 0.563919
0.123601 0.113028 0.562226
0.124422 0.112288 0.563957
0.123340 0.109385 0.565235
0.123353 0.113373 0.566678
0.126171 0.112766 0.565163
0.120557 0.113827 0.564206
0.120524 0.117375 0.561013
0.129818 0.108249 0.571401
0.122583 0.116340 0.568767
0.125953 0.118164 0.562067
0.129702 0.117826 0.566994
0.128303 0.110392 0.570968
0.127168 0.113329 0.567693
0.126313 0.112528 0.575016
0.124745 0.115427 0.568484
0.123802 0.118169 0.566543
0.135025 0.113062 0.563379
0.126916 0.112955 0.567702
0.129344 0.117966 0.573483
0.131843 0.117671 0.572305
0.128946 0.112078 0.571848
0.131638 0.115092 0.567686
0.130563 0.117652 0.574761
0.128402 0.111206 0.566639
0.131812 0.111250 0.569694
0.133763 0.107003 0.564958
0.128880 0.112278 0.573735
0.134250 0.111630 0.574669
0.134101 0.111567 0.572337
0.135876 0.118491 0.571079
0.131147 0.114223 0.568014
0.136178 0.109559 0.577398
0.136672 0.112652 0.576963
0.136673 0.112232 0.573154
0.142043 0.115355 0.578311
0.135798 0.108983 0.575788
0.136346 0.113660 0.577696
0.138018 0.112066 0.572104
0.132234 0.115785 0.574803
0.138667 0.111666 0.581179
0.135915 0.111135 0.572070
0.137516 0.114616 0.580794
0.136369 0.117425 0.576365
0.139105 0.114371 0.580431
0.140755 0.109613 0.575561
0.137172 0.108100 0.582073
0.138662 0.114951 0.580704
0.137057 0.112122 0.583129
0.137437 0.118517 0.584396
0.139119 0.113716 0.582314
0.137413 0.119455 0.580294
0.133223 0.110259 0.589404
0.139130 0.110956 0.582413
0.136626 0.112941 0.585313
0.135558 0.113925 0.584048
0.140047 0.118005 0.588381
0.138692 0.105951 0.584133
0.138113 0.110805 0.583901
0.138609 0.110014 0.583247
0.136126 0.112333 0.591792
0.142106 0.118764 0.585872
0.138772 0.115187 0.590201
0.141359 0.115539 0.583282
0.144404 0.114099 0.592942
0.141961 0.112829 0.590845
0.142445 0.112130 0.588897
0.141713 0.113400 0.589205
0.144543 0.114688 0.589332
0.135663 0.113707 0.595287
0.142172 0.118636 0.593217
0.136295 0.113360 0.594192
0.146449 0.111123 0.591439
0.141319 0.111077 0.592290
0.142483 0.112086 0.593091
0.139496 0.117104 0.591297
0.136996 0.113104 0.593871
0.149576 0.108554 0.595093
0.146794 0.114991 0.598214
0.140928 0.113101 0.597725
0.144310 0.114347 0.598223
0.142456 0.111978 0.596069
0.138138 0.115750 0.599336
0.145762 0.114870 0.598709
0.143632 0.114702 0.596876
0.144781 0.108604 0.603088
0.144032 0.108446 0.597543
0.143593 0.111016 0.604181
0.143855 0.116523 0.596758
0.141584 0.111070 0.600108
0.137139 0.107725 0.602151
0.142309 0.112570 0.603303
0.144885 0.115684 0.602161
0.139541 0.112855 0.605464
0.142446 0.116082 0.602126
0.142421 0.106586 0.607193
0.142060 0.115692 0.599995
0.141607 0.110058 0.603973
0.142932 0.109051 0.604071
0.146709 0.115428 0.608862
0.136768 0.113876 0.607649
0.138616 0.111496 0.605126
0.140316 0.113190 0.603221
0.141827 0.114530 0.608621
0.142918 0.115919 0.608421
0.147511 0.119168 0.606426
0.139817 0.110850 0.608687
0.136433 0.114866 0.613761
0.141947 0.118639 0.611487
0.136339 0.113203 0.613683
0.142992 0.114472 0.616908
0.143497 0.116910 0.608782
0.143064 0.110424 0.612644
0.143318 0.115711 0.610584
0.140280 0.112858 0.608690
0.134369 0.109590 0.618629
0.140463 0.113029 0.618796
0.137401 0.114989 0.613908
0.138438 0.112018 0.616622
0.140339 0.111896 0.613696
0.137873 0.118584 0.615615
0.136316 0.112574 0.615390
0.141004 0.114942 0.618197
0.136557 0.113991 0.614392
0.137571 0.113809 0.624627
0.139619 0.112310 0.618269
0.137172 0.115514 0.618274
0.134918 0.114415 0.613750
0.140167 0.112925 0.624741
0.137384 0.113761 0.617116
0.132199 0.113871 0.626678
0.132902 0.109338 0.611804
0.140247 0.113817 0.620299
0.140033 0.112894 0.619017
0.132137 0.112247 0.620758
0.131743 0.114898 0.620166
0.138169 0.110322 0.624750
0.137760 0.110906 0.617354
0.132642 0.115374 0.621063
0.133180 0.112503 0.621906
0.138320 0.112965 0.620820
0.137785 0.107694 0.624108
0.137475 0.111237 0.624428
0.128935 0.115365 0.626204
0.134719 0.116527 0.625082
0.129678 0.111760 0.632814
0.136255 0.108139 0.624810
0.134773 0.116498 0.633691
0.131568 0.113404 0.628099
0.132749 0.115966 0.623403
0.132696 0.112651 0.632488
0.128337 0.111806 0.627059
0.123077 0.117583 0.628557
0.135345 0.115216 0.629778
0.125688 0.117657 0.630496
0.126116 0.113213 0.629559
0.131899 0.108190 0.630658
0.128766 0.111001 0.628666
0.132226 0.113026 0.634069
0.126467 0.113269 0.633836
0.128548 0.117270 0.632869
0.130408 0.114413 0.634158
0.122346 0.114199 0.628594
0.131842 0.115586 0.635050
0.127651 0.110232 0.633500
0.124901 0.113438 0.632271
0.120179 0.113616 0.633201
0.125852 0.113866 0.634373
0.123187 0.110524 0.636834
0.120971 0.120174 0.636639
0.121627 0.115768 0.635431
0.125466 0.112377 0.641108
0.117783 0.112486 0.631034
0.124025 0.106577 0.634932
0.121063 0.108033 0.634763
0.119602 0.114456 0.634430
0.118607 0.113213 0.639978
0.120278 0.111252 0.641074
0.116577 0.113524 0.564230
0.124345 0.122569 0.561908
0.120330 0.113429 0.564702
0.122481 0.117788 0.564644
0.122140 0.115003 0.565343
0.128269 0.115610 0.559227
0.130804 0.117699 0.563894
0.126480 0.114328 0.565587
0.121727 0.118519 0.565670
0.121738 0.119074 0.564092
0.121684 0.115413 0.567906
0.127966 0.120372 0.567975
0.128706 0.116250 0.562618
0.127955 0.116236 0.566528
0.131800 0.120627 0.565063
0.132608 0.112726 0.567688
0.128816 0.116446 0.576043
0.131282 0.119309 0.570418
0.131666 0.121243 0.569110
0.126795 0.114675 0.569014
0.126955 0.116458 0.569203
0.129721 0.116620 0.570007
0.129711 0.113790 0.568159
0.133620 0.119503 0.566928
0.131814 0.117648 0.574119
0.134992 0.119602 0.570985
0.130989 0.117652 0.573552
0.131694 0.116238 0.568365
0.130479 0.113945 0.575510
0.130811 0.114718 0.571368
0.129096 0.121806 0.572162
0.132498 0.116045 0.576653
0.135297 0.114577 0.569560
0.129215 0.112030 0.575694
0.135092 0.121023 0.572425
0.128951 0.114870 0.576009
0.135031 0.117472 0.576390
0.138644 0.118880 0.574777
0.135369 0.118214 0.571092
0.134861 0.118859 0.578983
0.134542 0.118899 0.573908
0.142523 0.115047 0.574321
0.135609 0.114813 0.580854
0.135595 0.113480 0.580751
0.136523 0.116222 0.583952
0.133214 0.121841 0.575782
0.132266 0.120056 0.580703
0.140184 0.122625 0.575483
0.136775 0.109275 0.581500
0.134338 0.114379 0.580589
0.137215 0.117197 0.584702
0.139670 0.119625 0.582762
0.134757 0.114324 0.581833
0.140119 0.116574 0.584506
0.134686 0.112673 0.580653
0.141302 0.116269 0.580463
0.138976 0.116839 0.580265
0.144319 0.112071 0.586056
0.142043 0.112119 0.586256
0.137662 0.120987 0.580532
0.141270 0.120039 0.583082
0.141418 0.115772 0.588164
0.137962 0.117082 0.589510
0.142251 0.117494 0.589282
0.139926 0.118747 0.586425
0.141087 0.115410 0.589285
0.145036 0.110549 0.588000
0.132268 0.114206 0.589555
0.139752 0.116976 0.591891
0.146610 0.114338 0.590437
0.141403 0.118668 0.589280
0.141878 0.113683 0.591571
0.142132 0.116761 0.591387
0.139292 0.113854 0.594212
0.142710 0.121493 0.590984
0.146015 0.116918 0.591014
0.142601 0.118823 0.588796
0.147693 0.116034 0.593899
0.143436 0.115351 0.594093
0.145389 0.112769 0.590289
0.145266 0.116696 0.595482
0.143223 0.120274 0.600678
0.146241 0.119581 0.598860
0.143346 0.113222 0.597783
0.141252 0.113942 0.597199
0.142578 0.120014 0.604017
0.145302 0.116610 0.596994
0.144352 0.121499 0.596869
0.144697 0.116591 0.596322
0.143304 0.117105 0.597407
0.137962 0.114966 0.601236
0.146014 0.118103 0.603165
0.142245 0.114556 0.606520
0.144587 0.118828 0.604737
0.147090 0.115805 0.599103
0.140430 0.113768 0.597432
0.147046 0.115544 0.605643
0.141873 0.116096 0.602481
0.137978 0.115178 0.598594
0.149229 0.114976 0.605240
0.143283 0.115003 0.609675
0.141362 0.119681 0.606185
0.144956 0.114064 0.607132
