# .PCD v0.7 - Point Cloud Data
VERSION 0.7
FIELDS x y z
SIZE 4 4 4
TYPE F F F
COUNT 1 1 1
WIDTH 1708
HEIGHT 1
VIEWPOINT 0 0 0 1 0 0 0
POINTS 1708
DATA ascii
0.063716 -0.127986 0.632000
0.064619 -0.127581 0.630000
0.065724 -0.127581 0.630000
0.066298 -0.126569 0.625000
0.067394 -0.126569 0.625000
0.068270 -0.126164 0.623000
0.069140 -0.125759 0.621000
0.070116 -0.125556 0.620000
0.070973 -0.125151 0.618000
0.071824 -0.124746 0.616000
0.072785 -0.124544 0.615000
0.073623 -0.124139 0.613000
0.074576 -0.123936 0.612000
0.075526 -0.123734 0.611000
0.076472 -0.123531 0.610000
0.077414 -0.123329 0.609000
0.078353 -0.123126 0.608000
0.079288 -0.122924 0.607000
0.080220 -0.122721 0.606000
0.081283 -0.122721 0.606000
0.082074 -0.122316 0.604000
0.083133 -0.122316 0.604000
0.084052 -0.122114 0.603000
0.084968 -0.121911 0.602000
0.085881 -0.121709 0.601000
0.086935 -0.121709 0.601000
0.087842 -0.121506 0.600000
0.088894 -0.121506 0.600000
0.089796 -0.121303 0.599000
0.090846 -0.121303 0.599000
0.091743 -0.121101 0.598000
0.092947 -0.121303 0.599000
0.093840 -0.121101 0.598000
0.094730 -0.120898 0.597000
0.095937 -0.121101 0.598000
0.096823 -0.120898 0.597000
0.097870 -0.120898 0.597000
0.098917 -0.120898 0.597000
0.099796 -0.120696 0.596000
0.100841 -0.120696 0.596000
0.101886 -0.120696 0.596000
0.102931 -0.120696 0.596000
0.103976 -0.120696 0.596000
0.105021 -0.120696 0.596000
0.106066 -0.120696 0.596000
0.106931 -0.120493 0.595000
0.108156 -0.120696 0.596000
0.109018 -0.120493 0.595000
0.110061 -0.120493 0.595000
0.111104 -0.120493 0.595000
0.112148 -0.120493 0.595000
0.113191 -0.120493 0.595000
0.114234 -0.120493 0.595000
0.115277 -0.120493 0.595000
0.116321 -0.120493 0.595000
0.117561 -0.120696 0.596000
0.118407 -0.120493 0.595000
0.119651 -0.120696 0.596000
0.120696 -0.120696 0.596000
0.121945 -0.120898 0.597000
0.122992 -0.120898 0.597000
0.124246 -0.121101 0.598000
0.125295 -0.121101 0.598000
0.126343 -0.121101 0.598000
0.127605 -0.121303 0.599000
0.128655 -0.121303 0.599000
0.129922 -0.121506 0.600000
0.130974 -0.121506 0.600000
0.132026 -0.121506 0.600000
0.133300 -0.121709 0.601000
0.134354 -0.121709 0.601000
0.135858 -0.122114 0.603000
0.137142 -0.122316 0.604000
0.138659 -0.122721 0.606000
0.139721 -0.122721 0.606000
0.141016 -0.122924 0.607000
0.142080 -0.122924 0.607000
0.143381 -0.123126 0.608000
0.144922 -0.123531 0.610000
0.146231 -0.123734 0.611000
0.148507 -0.124746 0.616000
0.149587 -0.124746 0.616000
0.151401 -0.125354 0.619000
0.063615 -0.126677 0.631000
0.064619 -0.126477 0.630000
0.065619 -0.126276 0.629000
0.066616 -0.126075 0.628000
0.067609 -0.125874 0.627000
0.068270 -0.125071 0.623000
0.069251 -0.124871 0.622000
0.070116 -0.124469 0.620000
0.071088 -0.124268 0.619000
0.072057 -0.124068 0.618000
0.072785 -0.123465 0.615000
0.073623 -0.123064 0.613000
0.074576 -0.122863 0.612000
0.075526 -0.122662 0.611000
0.076472 -0.122462 0.610000
0.077414 -0.122261 0.609000
0.078353 -0.122060 0.608000
0.079288 -0.121859 0.607000
0.080220 -0.121659 0.606000
0.081015 -0.121257 0.604000
0.082074 -0.121257 0.604000
0.082995 -0.121056 0.603000
0.084052 -0.121056 0.603000
0.084968 -0.120856 0.602000
0.085881 -0.120655 0.601000
0.086790 -0.120454 0.600000
0.087842 -0.120454 0.600000
0.088746 -0.120253 0.599000
0.089796 -0.120253 0.599000
0.090846 -0.120253 0.599000
0.091743 -0.120052 0.598000
0.092792 -0.120052 0.598000
0.093840 -0.120052 0.598000
0.094730 -0.119852 0.597000
0.095777 -0.119852 0.597000
0.096823 -0.119852 0.597000
0.097870 -0.119852 0.597000
0.098917 -0.119852 0.597000
0.099796 -0.119651 0.596000
0.100841 -0.119651 0.596000
0.101886 -0.119651 0.596000
0.102931 -0.119651 0.596000
0.103976 -0.119651 0.596000
0.105021 -0.119651 0.596000
0.106066 -0.119651 0.596000
0.107111 -0.119651 0.596000
0.108156 -0.119651 0.596000
0.109018 -0.119450 0.595000
0.110061 -0.119450 0.595000
0.110918 -0.119249 0.594000
0.111959 -0.119249 0.594000
0.113001 -0.119249 0.594000
0.114042 -0.119249 0.594000
0.115084 -0.119249 0.594000
0.116516 -0.119651 0.596000
0.117561 -0.119651 0.596000
0.118606 -0.119651 0.596000
0.119651 -0.119651 0.596000
0.120696 -0.119651 0.596000
0.121945 -0.119852 0.597000
0.123198 -0.120052 0.598000
0.124246 -0.120052 0.598000
0.125295 -0.120052 0.598000
0.126343 -0.120052 0.598000
0.127605 -0.120253 0.599000
0.128655 -0.120253 0.599000
0.129705 -0.120253 0.599000
0.130974 -0.120454 0.600000
0.132026 -0.120454 0.600000
0.133300 -0.120655 0.601000
0.134354 -0.120655 0.601000
0.135858 -0.121056 0.603000
0.137596 -0.121659 0.606000
0.138659 -0.121659 0.606000
0.139952 -0.121859 0.607000
0.141016 -0.121859 0.607000
0.142080 -0.121859 0.607000
0.143616 -0.122261 0.609000
0.144922 -0.122462 0.610000
0.146470 -0.122863 0.612000
0.148507 -0.123666 0.616000
0.150073 -0.124068 0.618000
0.151401 -0.124268 0.619000
0.065411 -0.124775 0.627000
0.066298 -0.124377 0.625000
0.067609 -0.124775 0.627000
0.068270 -0.123979 0.623000
0.069251 -0.123780 0.622000
0.070116 -0.123382 0.620000
0.071088 -0.123183 0.619000
0.072057 -0.122984 0.618000
0.072785 -0.122387 0.615000
0.073623 -0.121989 0.613000
0.074576 -0.121790 0.612000
0.075526 -0.121591 0.611000
0.076472 -0.121392 0.610000
0.077414 -0.121193 0.609000
0.078353 -0.120994 0.608000
0.079288 -0.120795 0.607000
0.080220 -0.120596 0.606000
0.081015 -0.120198 0.604000
0.082074 -0.120198 0.604000
0.082995 -0.119999 0.603000
0.083913 -0.119800 0.602000
0.084968 -0.119800 0.602000
0.085881 -0.119601 0.601000
0.086935 -0.119601 0.601000
0.087842 -0.119402 0.600000
0.088894 -0.119402 0.600000
0.089796 -0.119203 0.599000
0.090846 -0.119203 0.599000
0.091897 -0.119203 0.599000
0.092792 -0.119004 0.598000
0.093840 -0.119004 0.598000
0.094730 -0.118805 0.597000
0.095777 -0.118805 0.597000
0.096823 -0.118805 0.597000
0.097870 -0.118805 0.597000
0.098917 -0.118805 0.597000
0.099964 -0.118805 0.597000
0.100841 -0.118606 0.596000
0.101886 -0.118606 0.596000
0.102931 -0.118606 0.596000
0.103976 -0.118606 0.596000
0.105021 -0.118606 0.596000
0.106066 -0.118606 0.596000
0.107111 -0.118606 0.596000
0.108156 -0.118606 0.596000
0.109201 -0.118606 0.596000
0.110246 -0.118606 0.596000
0.111104 -0.118407 0.595000
0.111959 -0.118208 0.594000
0.113191 -0.118407 0.595000
0.114234 -0.118407 0.595000
0.115277 -0.118407 0.595000
0.116516 -0.118606 0.596000
0.117561 -0.118606 0.596000
0.118407 -0.118407 0.595000
0.119450 -0.118407 0.595000
0.120696 -0.118606 0.596000
0.121945 -0.118805 0.597000
0.122992 -0.118805 0.597000
0.124246 -0.119004 0.598000
0.125295 -0.119004 0.598000
0.126343 -0.119004 0.598000
0.127605 -0.119203 0.599000
0.128655 -0.119203 0.599000
0.129705 -0.119203 0.599000
0.130756 -0.119203 0.599000
0.132026 -0.119402 0.600000
0.133300 -0.119601 0.601000
0.134577 -0.119800 0.602000
0.136083 -0.120198 0.604000
0.137596 -0.120596 0.606000
0.138659 -0.120596 0.606000
0.139952 -0.120795 0.607000
0.141016 -0.120795 0.607000
0.142315 -0.120994 0.608000
0.143616 -0.121193 0.609000
0.145159 -0.121591 0.611000
0.146470 -0.121790 0.612000
0.148266 -0.122387 0.615000
0.149345 -0.122387 0.615000
0.151157 -0.122984 0.618000
0.152487 -0.123183 0.619000
0.066192 -0.123084 0.624000
0.067394 -0.123281 0.625000
0.068270 -0.122887 0.623000
0.069251 -0.122690 0.622000
0.070116 -0.122295 0.620000
0.071088 -0.122098 0.619000
0.072057 -0.121900 0.618000
0.072785 -0.121309 0.615000
0.073743 -0.121111 0.614000
0.074576 -0.120717 0.612000
0.075526 -0.120520 0.611000
0.076472 -0.120322 0.610000
0.077414 -0.120125 0.609000
0.078353 -0.119928 0.608000
0.079288 -0.119731 0.607000
0.080220 -0.119534 0.606000
0.081015 -0.119139 0.604000
0.082074 -0.119139 0.604000
0.082995 -0.118942 0.603000
0.084052 -0.118942 0.603000
0.084968 -0.118744 0.602000
0.085881 -0.118547 0.601000
0.086935 -0.118547 0.601000
0.087842 -0.118350 0.600000
0.088894 -0.118350 0.600000
0.089946 -0.118350 0.600000
0.090846 -0.118153 0.599000
0.091897 -0.118153 0.599000
0.092947 -0.118153 0.599000
0.093840 -0.117955 0.598000
0.094730 -0.117758 0.597000
0.095777 -0.117758 0.597000
0.096823 -0.117758 0.597000
0.097870 -0.117758 0.597000
0.098917 -0.117758 0.597000
0.099964 -0.117758 0.597000
0.100841 -0.117561 0.596000
0.101886 -0.117561 0.596000
0.103104 -0.117758 0.597000
0.103976 -0.117561 0.596000
0.105021 -0.117561 0.596000
0.106066 -0.117561 0.596000
0.107111 -0.117561 0.596000
0.108156 -0.117561 0.596000
0.109018 -0.117364 0.595000
0.110061 -0.117364 0.595000
0.111104 -0.117364 0.595000
0.111959 -0.117166 0.594000
0.113191 -0.117364 0.595000
0.114234 -0.117364 0.595000
0.115277 -0.117364 0.595000
0.116516 -0.117561 0.596000
0.117364 -0.117364 0.595000
0.118407 -0.117364 0.595000
0.119450 -0.117364 0.595000
0.120696 -0.117561 0.596000
0.121945 -0.117758 0.597000
0.123198 -0.117955 0.598000
0.124246 -0.117955 0.598000
0.125295 -0.117955 0.598000
0.126343 -0.117955 0.598000
0.127605 -0.118153 0.599000
0.128655 -0.118153 0.599000
0.129705 -0.118153 0.599000
0.130756 -0.118153 0.599000
0.132026 -0.118350 0.600000
0.133300 -0.118547 0.601000
0.134354 -0.118547 0.601000
0.136083 -0.119139 0.604000
0.137596 -0.119534 0.606000
0.138888 -0.119731 0.607000
0.139952 -0.119731 0.607000
0.141016 -0.119731 0.607000
0.142080 -0.119731 0.607000
0.143616 -0.120125 0.609000
0.145159 -0.120520 0.611000
0.146709 -0.120914 0.613000
0.148266 -0.121309 0.615000
0.149345 -0.121309 0.615000
0.151157 -0.121900 0.618000
0.152487 -0.122098 0.619000
0.066192 -0.121990 0.624000
0.067178 -0.121794 0.623000
0.068270 -0.121794 0.623000
0.069251 -0.121599 0.622000
0.070229 -0.121403 0.621000
0.071088 -0.121012 0.619000
0.072057 -0.120817 0.618000
0.072785 -0.120230 0.615000
0.073743 -0.120035 0.614000
0.074576 -0.119644 0.612000
0.075526 -0.119448 0.611000
0.076346 -0.119057 0.609000
0.077414 -0.119057 0.609000
0.078353 -0.118862 0.608000
0.079288 -0.118666 0.607000
0.080220 -0.118471 0.606000
0.081015 -0.118080 0.604000
0.082074 -0.118080 0.604000
0.082995 -0.117884 0.603000
0.084052 -0.117884 0.603000
0.084968 -0.117689 0.602000
0.085881 -0.117493 0.601000
0.086935 -0.117493 0.601000
0.087988 -0.117493 0.601000
0.088894 -0.117298 0.600000
0.089946 -0.117298 0.600000
0.090998 -0.117298 0.600000
0.091897 -0.117103 0.599000
0.092947 -0.117103 0.599000
0.093840 -0.116907 0.598000
0.094730 -0.116712 0.597000
0.095777 -0.116712 0.597000
0.096823 -0.116712 0.597000
0.097870 -0.116712 0.597000
0.098917 -0.116712 0.597000
0.099964 -0.116712 0.597000
0.100841 -0.116516 0.596000
0.102057 -0.116712 0.597000
0.103104 -0.116712 0.597000
0.103976 -0.116516 0.596000
0.105021 -0.116516 0.596000
0.106066 -0.116516 0.596000
0.106931 -0.116321 0.595000
0.108156 -0.116516 0.596000
0.109201 -0.116516 0.596000
0.110061 -0.116321 0.595000
0.111104 -0.116321 0.595000
0.112148 -0.116321 0.595000
0.113191 -0.116321 0.595000
0.114234 -0.116321 0.595000
0.115277 -0.116321 0.595000
0.116321 -0.116321 0.595000
0.117364 -0.116321 0.595000
0.118407 -0.116321 0.595000
0.119651 -0.116516 0.596000
0.120898 -0.116712 0.597000
0.121945 -0.116712 0.597000
0.123198 -0.116907 0.598000
0.124246 -0.116907 0.598000
0.125295 -0.116907 0.598000
0.126343 -0.116907 0.598000
0.127605 -0.117103 0.599000
0.128655 -0.117103 0.599000
0.129705 -0.117103 0.599000
0.130756 -0.117103 0.599000
0.132026 -0.117298 0.600000
0.133300 -0.117493 0.601000
0.134577 -0.117689 0.602000
0.136083 -0.118080 0.604000
0.137596 -0.118471 0.606000
0.138888 -0.118666 0.607000
0.139952 -0.118666 0.607000
0.141016 -0.118666 0.607000
0.142315 -0.118862 0.608000
0.143616 -0.119057 0.609000
0.144922 -0.119253 0.610000
0.146709 -0.119839 0.613000
0.148507 -0.120426 0.616000
0.149587 -0.120426 0.616000
0.151401 -0.121012 0.619000
0.067178 -0.120702 0.623000
0.068270 -0.120702 0.623000
0.069251 -0.120508 0.622000
0.070229 -0.120315 0.621000
0.071203 -0.120121 0.620000
0.072057 -0.119733 0.618000
0.072785 -0.119152 0.615000
0.073743 -0.118958 0.614000
0.074698 -0.118765 0.613000
0.075526 -0.118377 0.611000
0.076472 -0.118183 0.610000
0.077414 -0.117990 0.609000
0.078353 -0.117796 0.608000
0.079288 -0.117602 0.607000
0.080220 -0.117408 0.606000
0.081015 -0.117021 0.604000
0.081938 -0.116827 0.603000
0.082995 -0.116827 0.603000
0.084052 -0.116827 0.603000
0.084968 -0.116633 0.602000
0.085881 -0.116440 0.601000
0.086935 -0.116440 0.601000
0.087988 -0.116440 0.601000
0.088894 -0.116246 0.600000
0.089946 -0.116246 0.600000
0.090998 -0.116246 0.600000
0.091897 -0.116052 0.599000
0.092792 -0.115859 0.598000
0.093840 -0.115859 0.598000
0.094730 -0.115665 0.597000
0.095777 -0.115665 0.597000
0.096823 -0.115665 0.597000
0.097870 -0.115665 0.597000
0.098917 -0.115665 0.597000
0.099964 -0.115665 0.597000
0.100841 -0.115471 0.596000
0.102057 -0.115665 0.597000
0.102931 -0.115471 0.596000
0.103976 -0.115471 0.596000
0.105021 -0.115471 0.596000
0.105888 -0.115277 0.595000
0.106931 -0.115277 0.595000
0.107975 -0.115277 0.595000
0.109018 -0.115277 0.595000
0.110061 -0.115277 0.595000
0.111104 -0.115277 0.595000
0.112148 -0.115277 0.595000
0.113191 -0.115277 0.595000
0.114426 -0.115471 0.596000
0.115277 -0.115277 0.595000
0.116321 -0.115277 0.595000
0.117561 -0.115471 0.596000
0.118407 -0.115277 0.595000
0.119450 -0.115277 0.595000
0.120898 -0.115665 0.597000
0.121945 -0.115665 0.597000
0.123198 -0.115859 0.598000
0.124246 -0.115859 0.598000
0.125295 -0.115859 0.598000
0.126343 -0.115859 0.598000
0.127605 -0.116052 0.599000
0.128655 -0.116052 0.599000
0.129705 -0.116052 0.599000
0.130756 -0.116052 0.599000
0.132026 -0.116246 0.600000
0.133300 -0.116440 0.601000
0.134354 -0.116440 0.601000
0.135858 -0.116827 0.603000
0.137596 -0.117408 0.606000
0.138659 -0.117408 0.606000
0.140183 -0.117796 0.608000
0.141249 -0.117796 0.608000
0.142315 -0.117796 0.608000
0.143616 -0.117990 0.609000
0.144922 -0.118183 0.610000
0.146709 -0.118765 0.613000
0.148507 -0.119346 0.616000
0.149587 -0.119346 0.616000
0.151401 -0.119927 0.619000
0.067286 -0.119802 0.624000
0.068161 -0.119418 0.622000
0.069251 -0.119418 0.622000
0.070229 -0.119226 0.621000
0.071203 -0.119034 0.620000
0.072057 -0.118650 0.618000
0.072785 -0.118074 0.615000
0.073743 -0.117882 0.614000
0.074698 -0.117690 0.613000
0.075526 -0.117306 0.611000
0.076472 -0.117114 0.610000
0.077414 -0.116922 0.609000
0.078353 -0.116730 0.608000
0.079288 -0.116538 0.607000
0.080220 -0.116346 0.606000
0.081015 -0.115962 0.604000
0.081938 -0.115770 0.603000
0.082995 -0.115770 0.603000
0.083913 -0.115578 0.602000
0.084968 -0.115578 0.602000
0.085881 -0.115386 0.601000
0.086935 -0.115386 0.601000
0.087988 -0.115386 0.601000
0.088894 -0.115194 0.600000
0.089946 -0.115194 0.600000
0.090998 -0.115194 0.600000
0.092050 -0.115194 0.600000
0.092947 -0.115002 0.599000
0.093840 -0.114810 0.598000
0.094889 -0.114810 0.598000
0.095937 -0.114810 0.598000
0.096823 -0.114618 0.597000
0.097870 -0.114618 0.597000
0.098917 -0.114618 0.597000
0.099964 -0.114618 0.597000
0.101010 -0.114618 0.597000
0.102057 -0.114618 0.597000
0.103104 -0.114618 0.597000
0.103976 -0.114426 0.596000
0.105021 -0.114426 0.596000
0.105888 -0.114234 0.595000
0.106931 -0.114234 0.595000
0.107975 -0.114234 0.595000
0.109018 -0.114234 0.595000
0.110061 -0.114234 0.595000
0.111104 -0.114234 0.595000
0.112148 -0.114234 0.595000
0.113191 -0.114234 0.595000
0.114426 -0.114426 0.596000
0.115471 -0.114426 0.596000
0.116516 -0.114426 0.596000
0.117561 -0.114426 0.596000
0.118606 -0.114426 0.596000
0.119651 -0.114426 0.596000
0.120898 -0.114618 0.597000
0.122149 -0.114810 0.598000
0.123198 -0.114810 0.598000
0.124246 -0.114810 0.598000
0.125504 -0.115002 0.599000
0.126555 -0.115002 0.599000
0.127605 -0.115002 0.599000
0.128655 -0.115002 0.599000
0.129705 -0.115002 0.599000
0.130756 -0.115002 0.599000
0.132026 -0.115194 0.600000
0.133300 -0.115386 0.601000
0.134354 -0.115386 0.601000
0.135858 -0.115770 0.603000
0.137142 -0.115962 0.604000
0.138659 -0.116346 0.606000
0.140183 -0.116730 0.608000
0.141249 -0.116730 0.608000
0.142315 -0.116730 0.608000
0.143852 -0.117114 0.610000
0.145159 -0.117306 0.611000
0.146949 -0.117882 0.614000
0.148507 -0.118266 0.616000
0.150073 -0.118650 0.618000
0.151401 -0.118842 0.619000
0.067178 -0.118517 0.623000
0.068161 -0.118327 0.622000
0.069140 -0.118137 0.621000
0.070229 -0.118137 0.621000
0.071203 -0.117947 0.620000
0.072173 -0.117756 0.619000
0.072785 -0.116996 0.615000
0.073743 -0.116805 0.614000
0.074698 -0.116615 0.613000
0.075526 -0.116235 0.611000
0.076346 -0.115854 0.609000
0.077414 -0.115854 0.609000
0.078353 -0.115664 0.608000
0.079419 -0.115664 0.608000
0.080220 -0.115283 0.606000
0.081283 -0.115283 0.606000
0.081938 -0.114713 0.603000
0.082995 -0.114713 0.603000
0.083913 -0.114522 0.602000
0.084968 -0.114522 0.602000
0.085881 -0.114332 0.601000
0.086935 -0.114332 0.601000
0.087988 -0.114332 0.601000
0.088894 -0.114142 0.600000
0.089946 -0.114142 0.600000
0.090998 -0.114142 0.600000
0.092050 -0.114142 0.600000
0.092947 -0.113952 0.599000
0.093840 -0.113762 0.598000
0.094889 -0.113762 0.598000
0.095937 -0.113762 0.598000
0.096823 -0.113571 0.597000
0.097870 -0.113571 0.597000
0.098917 -0.113571 0.597000
0.099964 -0.113571 0.597000
0.101010 -0.113571 0.597000
0.102057 -0.113571 0.597000
0.103104 -0.113571 0.597000
0.103976 -0.113381 0.596000
0.105021 -0.113381 0.596000
0.106066 -0.113381 0.596000
0.106931 -0.113191 0.595000
0.107975 -0.113191 0.595000
0.109018 -0.113191 0.595000
0.110061 -0.113191 0.595000
0.111291 -0.113381 0.596000
0.112148 -0.113191 0.595000
0.113381 -0.113381 0.596000
0.114426 -0.113381 0.596000
0.115471 -0.113381 0.596000
0.116321 -0.113191 0.595000
0.117561 -0.113381 0.596000
0.118606 -0.113381 0.596000
0.119852 -0.113571 0.597000
0.120898 -0.113571 0.597000
0.122149 -0.113762 0.598000
0.123198 -0.113762 0.598000
0.124246 -0.113762 0.598000
0.125504 -0.113952 0.599000
0.126555 -0.113952 0.599000
0.127605 -0.113952 0.599000
0.128655 -0.113952 0.599000
0.129705 -0.113952 0.599000
0.130756 -0.113952 0.599000
0.131806 -0.113952 0.599000
0.133300 -0.114332 0.601000
0.134354 -0.114332 0.601000
0.135858 -0.114713 0.603000
0.137142 -0.114903 0.604000
0.138659 -0.115283 0.606000
0.139952 -0.115474 0.607000
0.141016 -0.115474 0.607000
0.142315 -0.115664 0.608000
0.143852 -0.116044 0.610000
0.145159 -0.116235 0.611000
0.146949 -0.116805 0.614000
0.148507 -0.117186 0.616000
0.149587 -0.117186 0.616000
0.151401 -0.117756 0.619000
0.066086 -0.117425 0.623000
0.067178 -0.117425 0.623000
0.068161 -0.117237 0.622000
0.069251 -0.117237 0.622000
0.070229 -0.117048 0.621000
0.071203 -0.116860 0.620000
0.072173 -0.116671 0.619000
0.072785 -0.115917 0.615000
0.073743 -0.115729 0.614000
0.074698 -0.115540 0.613000
0.075526 -0.115163 0.611000
0.076472 -0.114975 0.610000
0.077414 -0.114786 0.609000
0.078353 -0.114598 0.608000
0.079288 -0.114409 0.607000
0.080220 -0.114221 0.606000
0.081283 -0.114221 0.606000
0.082074 -0.113844 0.604000
0.082995 -0.113655 0.603000
0.084052 -0.113655 0.603000
0.084968 -0.113467 0.602000
0.085881 -0.113278 0.601000
0.086935 -0.113278 0.601000
0.087988 -0.113278 0.601000
0.088894 -0.113090 0.600000
0.089946 -0.113090 0.600000
0.090998 -0.113090 0.600000
0.092050 -0.113090 0.600000
0.092947 -0.112902 0.599000
0.093997 -0.112902 0.599000
0.094889 -0.112713 0.598000
0.095937 -0.112713 0.598000
0.096823 -0.112525 0.597000
0.098034 -0.112713 0.598000
0.098917 -0.112525 0.597000
0.099964 -0.112525 0.597000
0.101010 -0.112525 0.597000
0.102057 -0.112525 0.597000
0.103104 -0.112525 0.597000
0.104151 -0.112525 0.597000
0.105021 -0.112336 0.596000
0.106066 -0.112336 0.596000
0.106931 -0.112148 0.595000
0.107975 -0.112148 0.595000
0.109018 -0.112148 0.595000
0.110061 -0.112148 0.595000
0.111291 -0.112336 0.596000
0.112336 -0.112336 0.596000
0.113381 -0.112336 0.596000
0.114426 -0.112336 0.596000
0.115471 -0.112336 0.596000
0.116516 -0.112336 0.596000
0.117561 -0.112336 0.596000
0.118606 -0.112336 0.596000
0.119651 -0.112336 0.596000
0.120696 -0.112336 0.596000
0.121945 -0.112525 0.597000
0.123198 -0.112713 0.598000
0.124246 -0.112713 0.598000
0.125504 -0.112902 0.599000
0.126555 -0.112902 0.599000
0.127605 -0.112902 0.599000
0.128655 -0.112902 0.599000
0.129705 -0.112902 0.599000
0.130756 -0.112902 0.599000
0.131806 -0.112902 0.599000
0.133300 -0.113278 0.601000
0.134577 -0.113467 0.602000
0.135858 -0.113655 0.603000
0.137142 -0.113844 0.604000
0.138201 -0.113844 0.604000
0.139721 -0.114221 0.606000
0.141016 -0.114409 0.607000
0.142315 -0.114598 0.608000
0.143852 -0.114975 0.610000
0.145159 -0.115163 0.611000
0.146949 -0.115729 0.614000
0.148507 -0.116106 0.616000
0.149587 -0.116106 0.616000
0.151157 -0.116483 0.618000
0.067070 -0.116146 0.622000
0.068051 -0.115959 0.621000
0.069140 -0.115959 0.621000
0.070229 -0.115959 0.621000
0.071203 -0.115773 0.620000
0.072057 -0.115399 0.618000
0.072785 -0.114839 0.615000
0.073743 -0.114652 0.614000
0.074698 -0.114465 0.613000
0.075526 -0.114092 0.611000
0.076472 -0.113905 0.610000
0.077414 -0.113719 0.609000
0.078353 -0.113532 0.608000
0.079288 -0.113345 0.607000
0.080220 -0.113158 0.606000
0.081283 -0.113158 0.606000
0.082074 -0.112785 0.604000
0.082995 -0.112598 0.603000
0.084052 -0.112598 0.603000
0.084968 -0.112411 0.602000
0.085881 -0.112225 0.601000
0.086935 -0.112225 0.601000
0.087988 -0.112225 0.601000
0.088894 -0.112038 0.600000
0.089946 -0.112038 0.600000
0.090998 -0.112038 0.600000
0.091897 -0.111851 0.599000
0.092947 -0.111851 0.599000
0.093840 -0.111665 0.598000
0.094889 -0.111665 0.598000
0.095937 -0.111665 0.598000
0.096823 -0.111478 0.597000
0.097870 -0.111478 0.597000
0.098917 -0.111478 0.597000
0.099964 -0.111478 0.597000
0.101010 -0.111478 0.597000
0.102057 -0.111478 0.597000
0.103104 -0.111478 0.597000
0.103976 -0.111291 0.596000
0.105021 -0.111291 0.596000
0.106066 -0.111291 0.596000
0.106931 -0.111104 0.595000
0.107975 -0.111104 0.595000
0.109018 -0.111104 0.595000
0.110061 -0.111104 0.595000
0.111291 -0.111291 0.596000
0.112148 -0.111104 0.595000
0.113381 -0.111291 0.596000
0.114426 -0.111291 0.596000
0.115471 -0.111291 0.596000
0.116516 -0.111291 0.596000
0.117561 -0.111291 0.596000
0.118606 -0.111291 0.596000
0.119450 -0.111104 0.595000
0.120696 -0.111291 0.596000
0.121945 -0.111478 0.597000
0.123198 -0.111665 0.598000
0.124246 -0.111665 0.598000
0.125295 -0.111665 0.598000
0.126555 -0.111851 0.599000
0.127605 -0.111851 0.599000
0.128655 -0.111851 0.599000
0.129705 -0.111851 0.599000
0.130756 -0.111851 0.599000
0.132026 -0.112038 0.600000
0.133300 -0.112225 0.601000
0.134577 -0.112411 0.602000
0.135633 -0.112411 0.602000
0.137142 -0.112785 0.604000
0.138201 -0.112785 0.604000
0.139721 -0.113158 0.606000
0.141016 -0.113345 0.607000
0.142315 -0.113532 0.608000
0.143852 -0.113905 0.610000
0.145635 -0.114465 0.613000
0.146949 -0.114652 0.614000
0.148507 -0.115026 0.616000
0.149587 -0.115026 0.616000
0.066086 -0.115240 0.623000
0.067070 -0.115055 0.622000
0.068051 -0.114871 0.621000
0.069140 -0.114871 0.621000
0.070229 -0.114871 0.621000
0.071088 -0.114501 0.619000
0.072057 -0.114316 0.618000
0.072785 -0.113761 0.615000
0.073743 -0.113576 0.614000
0.074698 -0.113391 0.613000
0.075402 -0.112836 0.610000
0.076346 -0.112651 0.609000
0.077414 -0.112651 0.609000
0.078353 -0.112466 0.608000
0.079288 -0.112281 0.607000
0.080220 -0.112096 0.606000
0.081283 -0.112096 0.606000
0.082074 -0.111726 0.604000
0.083133 -0.111726 0.604000
0.084052 -0.111541 0.603000
0.084968 -0.111356 0.602000
0.085881 -0.111171 0.601000
0.086935 -0.111171 0.601000
0.087988 -0.111171 0.601000
0.088894 -0.110986 0.600000
0.089946 -0.110986 0.600000
0.090998 -0.110986 0.600000
0.091897 -0.110801 0.599000
0.092947 -0.110801 0.599000
0.093997 -0.110801 0.599000
0.094889 -0.110616 0.598000
0.095937 -0.110616 0.598000
0.096823 -0.110431 0.597000
0.097870 -0.110431 0.597000
0.098917 -0.110431 0.597000
0.099964 -0.110431 0.597000
0.101010 -0.110431 0.597000
0.102057 -0.110431 0.597000
0.103104 -0.110431 0.597000
0.103976 -0.110246 0.596000
0.105021 -0.110246 0.596000
0.106066 -0.110246 0.596000
0.106931 -0.110061 0.595000
0.107975 -0.110061 0.595000
0.109018 -0.110061 0.595000
0.110061 -0.110061 0.595000
0.111291 -0.110246 0.596000
0.112336 -0.110246 0.596000
0.113381 -0.110246 0.596000
0.114426 -0.110246 0.596000
0.115471 -0.110246 0.596000
0.116516 -0.110246 0.596000
0.117561 -0.110246 0.596000
0.118606 -0.110246 0.596000
0.119651 -0.110246 0.596000
0.120898 -0.110431 0.597000
0.121945 -0.110431 0.597000
0.123198 -0.110616 0.598000
0.124246 -0.110616 0.598000
0.125504 -0.110801 0.599000
0.126555 -0.110801 0.599000
0.127605 -0.110801 0.599000
0.128655 -0.110801 0.599000
0.129922 -0.110986 0.600000
0.130974 -0.110986 0.600000
0.132026 -0.110986 0.600000
0.133300 -0.111171 0.601000
0.134577 -0.111356 0.602000
0.135633 -0.111356 0.602000
0.137142 -0.111726 0.604000
0.138201 -0.111726 0.604000
0.139952 -0.112281 0.607000
0.141016 -0.112281 0.607000
0.142315 -0.112466 0.608000
0.143852 -0.112836 0.610000
0.145635 -0.113391 0.613000
0.147188 -0.113761 0.615000
0.148507 -0.113946 0.616000
0.067178 -0.114148 0.623000
0.068161 -0.113965 0.622000
0.069140 -0.113782 0.621000
0.070229 -0.113782 0.621000
0.071088 -0.113415 0.619000
0.071824 -0.112866 0.616000
0.072785 -0.112682 0.615000
0.073743 -0.112499 0.614000
0.074698 -0.112316 0.613000
0.075526 -0.111949 0.611000
0.076346 -0.111583 0.609000
0.077414 -0.111583 0.609000
0.078224 -0.111217 0.607000
0.079288 -0.111217 0.607000
0.080220 -0.111033 0.606000
0.081283 -0.111033 0.606000
0.082074 -0.110667 0.604000
0.083133 -0.110667 0.604000
0.084052 -0.110484 0.603000
0.084968 -0.110300 0.602000
0.085881 -0.110117 0.601000
0.086935 -0.110117 0.601000
0.087988 -0.110117 0.601000
0.088894 -0.109934 0.600000
0.089946 -0.109934 0.600000
0.090998 -0.109934 0.600000
0.091897 -0.109751 0.599000
0.092792 -0.109568 0.598000
0.093840 -0.109568 0.598000
0.094889 -0.109568 0.598000
0.095937 -0.109568 0.598000
0.096823 -0.109384 0.597000
0.097870 -0.109384 0.597000
0.098917 -0.109384 0.597000
0.099964 -0.109384 0.597000
0.101010 -0.109384 0.597000
0.102057 -0.109384 0.597000
0.103104 -0.109384 0.597000
0.103976 -0.109201 0.596000
0.105021 -0.109201 0.596000
0.106066 -0.109201 0.596000
0.106931 -0.109018 0.595000
0.107975 -0.109018 0.595000
0.109018 -0.109018 0.595000
0.110061 -0.109018 0.595000
0.111291 -0.109201 0.596000
0.112336 -0.109201 0.596000
0.113381 -0.109201 0.596000
0.114426 -0.109201 0.596000
0.115471 -0.109201 0.596000
0.116516 -0.109201 0.596000
0.117561 -0.109201 0.596000
0.118606 -0.109201 0.596000
0.119651 -0.109201 0.596000
0.120898 -0.109384 0.597000
0.121945 -0.109384 0.597000
0.122992 -0.109384 0.597000
0.124246 -0.109568 0.598000
0.125295 -0.109568 0.598000
0.126555 -0.109751 0.599000
0.127605 -0.109751 0.599000
0.128655 -0.109751 0.599000
0.129705 -0.109751 0.599000
0.130974 -0.109934 0.600000
0.132026 -0.109934 0.600000
0.133300 -0.110117 0.601000
0.134354 -0.110117 0.601000
0.135858 -0.110484 0.603000
0.137142 -0.110667 0.604000
0.138201 -0.110667 0.604000
0.139721 -0.111033 0.606000
0.140784 -0.111033 0.606000
0.142080 -0.111217 0.607000
0.143616 -0.111583 0.609000
0.145397 -0.112133 0.612000
0.147427 -0.112866 0.616000
0.148507 -0.112866 0.616000
0.066192 -0.113237 0.624000
0.067178 -0.113056 0.623000
0.068161 -0.112874 0.622000
0.069140 -0.112693 0.621000
0.070116 -0.112511 0.620000
0.071088 -0.112330 0.619000
0.071824 -0.111786 0.616000
0.072667 -0.111423 0.614000
0.073743 -0.111423 0.614000
0.074698 -0.111241 0.613000
0.075526 -0.110878 0.611000
0.076472 -0.110697 0.610000
0.077414 -0.110515 0.609000
0.078353 -0.110334 0.608000
0.079288 -0.110152 0.607000
0.080220 -0.109971 0.606000
0.081283 -0.109971 0.606000
0.082074 -0.109608 0.604000
0.083133 -0.109608 0.604000
0.084052 -0.109426 0.603000
0.084968 -0.109245 0.602000
0.085881 -0.109063 0.601000
0.086935 -0.109063 0.601000
0.087842 -0.108882 0.600000
0.088894 -0.108882 0.600000
0.089946 -0.108882 0.600000
0.090998 -0.108882 0.600000
0.091897 -0.108701 0.599000
0.092792 -0.108519 0.598000
0.093840 -0.108519 0.598000
0.094889 -0.108519 0.598000
0.095937 -0.108519 0.598000
0.096823 -0.108338 0.597000
0.097870 -0.108338 0.597000
0.098917 -0.108338 0.597000
0.099964 -0.108338 0.597000
0.101010 -0.108338 0.597000
0.102057 -0.108338 0.597000
0.103104 -0.108338 0.597000
0.103976 -0.108156 0.596000
0.105021 -0.108156 0.596000
0.106066 -0.108156 0.596000
0.107111 -0.108156 0.596000
0.107975 -0.107975 0.595000
0.109018 -0.107975 0.595000
0.110246 -0.108156 0.596000
0.111291 -0.108156 0.596000
0.112336 -0.108156 0.596000
0.113381 -0.108156 0.596000
0.114426 -0.108156 0.596000
0.115471 -0.108156 0.596000
0.116516 -0.108156 0.596000
0.117561 -0.108156 0.596000
0.118606 -0.108156 0.596000
0.119651 -0.108156 0.596000
0.120898 -0.108338 0.597000
0.121945 -0.108338 0.597000
0.122992 -0.108338 0.597000
0.124039 -0.108338 0.597000
0.125295 -0.108519 0.598000
0.126343 -0.108519 0.598000
0.127605 -0.108701 0.599000
0.128655 -0.108701 0.599000
0.129705 -0.108701 0.599000
0.130974 -0.108882 0.600000
0.132026 -0.108882 0.600000
0.133300 -0.109063 0.601000
0.134577 -0.109245 0.602000
0.135858 -0.109426 0.603000
0.137142 -0.109608 0.604000
0.138201 -0.109608 0.604000
0.139721 -0.109971 0.606000
0.140784 -0.109971 0.606000
0.142080 -0.110152 0.607000
0.143616 -0.110515 0.609000
0.145635 -0.111241 0.613000
0.147188 -0.111604 0.615000
0.148507 -0.111786 0.616000
0.150073 -0.112148 0.618000
0.065202 -0.112323 0.625000
0.066192 -0.112143 0.624000
0.067178 -0.111963 0.623000
0.068051 -0.111604 0.621000
0.069140 -0.111604 0.621000
0.070116 -0.111424 0.620000
0.070973 -0.111065 0.618000
0.071707 -0.110526 0.615000
0.072667 -0.110346 0.614000
0.073623 -0.110166 0.613000
0.074698 -0.110166 0.613000
0.075526 -0.109807 0.611000
0.076472 -0.109627 0.610000
0.077414 -0.109447 0.609000
0.078353 -0.109268 0.608000
0.079288 -0.109088 0.607000
0.080220 -0.108908 0.606000
0.081283 -0.108908 0.606000
0.082074 -0.108549 0.604000
0.083133 -0.108549 0.604000
0.084052 -0.108369 0.603000
0.084968 -0.108189 0.602000
0.085881 -0.108010 0.601000
0.086935 -0.108010 0.601000
0.087988 -0.108010 0.601000
0.088894 -0.107830 0.600000
0.089946 -0.107830 0.600000
0.090998 -0.107830 0.600000
0.091897 -0.107650 0.599000
0.092792 -0.107471 0.598000
0.093840 -0.107471 0.598000
0.094889 -0.107471 0.598000
0.095937 -0.107471 0.598000
0.096823 -0.107291 0.597000
0.097870 -0.107291 0.597000
0.098917 -0.107291 0.597000
0.099964 -0.107291 0.597000
0.101010 -0.107291 0.597000
0.102057 -0.107291 0.597000
0.103104 -0.107291 0.597000
0.103976 -0.107111 0.596000
0.105021 -0.107111 0.596000
0.106066 -0.107111 0.596000
0.106931 -0.106931 0.595000
0.108156 -0.107111 0.596000
0.109201 -0.107111 0.596000
0.110246 -0.107111 0.596000
0.111291 -0.107111 0.596000
0.112336 -0.107111 0.596000
0.113381 -0.107111 0.596000
0.114426 -0.107111 0.596000
0.115471 -0.107111 0.596000
0.116516 -0.107111 0.596000
0.117561 -0.107111 0.596000
0.118606 -0.107111 0.596000
0.119651 -0.107111 0.596000
0.120696 -0.107111 0.596000
0.121945 -0.107291 0.597000
0.122992 -0.107291 0.597000
0.124039 -0.107291 0.597000
0.125085 -0.107291 0.597000
0.126343 -0.107471 0.598000
0.127605 -0.107650 0.599000
0.128655 -0.107650 0.599000
0.129922 -0.107830 0.600000
0.130974 -0.107830 0.600000
0.132246 -0.108010 0.601000
0.133300 -0.108010 0.601000
0.134577 -0.108189 0.602000
0.135858 -0.108369 0.603000
0.137142 -0.108549 0.604000
0.138201 -0.108549 0.604000
0.139721 -0.108908 0.606000
0.140784 -0.108908 0.606000
0.142080 -0.109088 0.607000
0.143616 -0.109447 0.609000
0.145872 -0.110346 0.614000
0.147188 -0.110526 0.615000
0.148507 -0.110705 0.616000
0.150073 -0.111065 0.618000
0.065202 -0.111227 0.625000
0.066192 -0.111049 0.624000
0.067178 -0.110871 0.623000
0.068051 -0.110515 0.621000
0.069140 -0.110515 0.621000
0.070003 -0.110159 0.619000
0.070973 -0.109981 0.618000
0.071707 -0.109447 0.615000
0.072667 -0.109269 0.614000
0.073623 -0.109092 0.613000
0.074576 -0.108914 0.612000
0.075526 -0.108736 0.611000
0.076472 -0.108558 0.610000
0.077414 -0.108380 0.609000
0.078353 -0.108202 0.608000
0.079288 -0.108024 0.607000
0.080220 -0.107846 0.606000
0.081283 -0.107846 0.606000
0.082074 -0.107490 0.604000
0.083133 -0.107490 0.604000
0.084052 -0.107312 0.603000
0.084968 -0.107134 0.602000
0.086024 -0.107134 0.602000
0.086935 -0.106956 0.601000
0.087988 -0.106956 0.601000
0.088894 -0.106778 0.600000
0.089946 -0.106778 0.600000
0.090998 -0.106778 0.600000
0.091897 -0.106600 0.599000
0.092792 -0.106422 0.598000
0.093683 -0.106244 0.597000
0.094730 -0.106244 0.597000
0.095777 -0.106244 0.597000
0.096823 -0.106244 0.597000
0.097706 -0.106066 0.596000
0.098917 -0.106244 0.597000
0.099964 -0.106244 0.597000
0.101010 -0.106244 0.597000
0.101886 -0.106066 0.596000
0.102931 -0.106066 0.596000
0.103976 -0.106066 0.596000
0.105021 -0.106066 0.596000
0.106066 -0.106066 0.596000
0.107111 -0.106066 0.596000
0.108156 -0.106066 0.596000
0.109018 -0.105888 0.595000
0.110246 -0.106066 0.596000
0.111291 -0.106066 0.596000
0.112336 -0.106066 0.596000
0.113381 -0.106066 0.596000
0.114426 -0.106066 0.596000
0.115471 -0.106066 0.596000
0.116516 -0.106066 0.596000
0.117561 -0.106066 0.596000
0.118606 -0.106066 0.596000
0.119651 -0.106066 0.596000
0.120696 -0.106066 0.596000
0.121945 -0.106244 0.597000
0.122992 -0.106244 0.597000
0.124039 -0.106244 0.597000
0.125085 -0.106244 0.597000
0.126132 -0.106244 0.597000
0.127392 -0.106422 0.598000
0.128655 -0.106600 0.599000
0.129705 -0.106600 0.599000
0.130974 -0.106778 0.600000
0.132026 -0.106778 0.600000
0.133300 -0.106956 0.601000
0.134577 -0.107134 0.602000
0.135858 -0.107312 0.603000
0.137142 -0.107490 0.604000
0.138201 -0.107490 0.604000
0.139721 -0.107846 0.606000
0.141016 -0.108024 0.607000
0.142315 -0.108202 0.608000
0.143852 -0.108558 0.610000
0.145635 -0.109092 0.613000
0.147188 -0.109447 0.615000
0.148989 -0.109981 0.618000
0.150073 -0.109981 0.618000
0.064311 -0.110484 0.627000
0.065202 -0.110131 0.625000
0.066192 -0.109955 0.624000
0.067178 -0.109779 0.623000
0.068051 -0.109426 0.621000
0.069140 -0.109426 0.621000
0.070003 -0.109074 0.619000
0.070973 -0.108898 0.618000
0.071707 -0.108369 0.615000
0.072667 -0.108193 0.614000
0.073623 -0.108017 0.613000
0.074576 -0.107841 0.612000
0.075526 -0.107664 0.611000
0.076472 -0.107488 0.610000
0.077414 -0.107312 0.609000
0.078353 -0.107136 0.608000
0.079288 -0.106959 0.607000
0.080220 -0.106783 0.606000
0.081283 -0.106783 0.606000
0.082074 -0.106431 0.604000
0.083133 -0.106431 0.604000
0.084052 -0.106255 0.603000
0.084968 -0.106078 0.602000
0.086024 -0.106078 0.602000
0.086935 -0.105902 0.601000
0.087988 -0.105902 0.601000
0.088894 -0.105726 0.600000
0.089946 -0.105726 0.600000
0.090998 -0.105726 0.600000
0.091897 -0.105550 0.599000
0.092792 -0.105374 0.598000
0.093683 -0.105197 0.597000
0.094730 -0.105197 0.597000
0.095777 -0.105197 0.597000
0.096823 -0.105197 0.597000
0.097706 -0.105021 0.596000
0.098751 -0.105021 0.596000
0.099796 -0.105021 0.596000
0.100841 -0.105021 0.596000
0.101886 -0.105021 0.596000
0.102931 -0.105021 0.596000
0.103802 -0.104845 0.595000
0.105021 -0.105021 0.596000
0.106066 -0.105021 0.596000
0.106931 -0.104845 0.595000
0.107975 -0.104845 0.595000
0.109018 -0.104845 0.595000
0.110246 -0.105021 0.596000
0.111291 -0.105021 0.596000
0.112336 -0.105021 0.596000
0.113381 -0.105021 0.596000
0.114426 -0.105021 0.596000
0.115471 -0.105021 0.596000
0.116516 -0.105021 0.596000
0.117561 -0.105021 0.596000
0.118606 -0.105021 0.596000
0.119651 -0.105021 0.596000
0.120898 -0.105197 0.597000
0.121945 -0.105197 0.597000
0.122992 -0.105197 0.597000
0.124039 -0.105197 0.597000
0.125085 -0.105197 0.597000
0.126132 -0.105197 0.597000
0.127392 -0.105374 0.598000
0.128655 -0.105550 0.599000
0.129705 -0.105550 0.599000
0.130974 -0.105726 0.600000
0.132246 -0.105902 0.601000
0.133300 -0.105902 0.601000
0.134577 -0.106078 0.602000
0.135858 -0.106255 0.603000
0.137142 -0.106431 0.604000
0.138201 -0.106431 0.604000
0.139952 -0.106959 0.607000
0.141016 -0.106959 0.607000
0.142549 -0.107312 0.609000
0.144088 -0.107664 0.611000
0.145872 -0.108193 0.614000
0.147188 -0.108369 0.615000
0.148989 -0.108898 0.618000
0.150073 -0.108898 0.618000
0.064106 -0.109035 0.625000
0.065098 -0.108861 0.624000
0.066192 -0.108861 0.624000
0.067070 -0.108512 0.622000
0.067942 -0.108163 0.620000
0.069029 -0.108163 0.620000
0.070003 -0.107989 0.619000
0.070973 -0.107814 0.618000
0.071707 -0.107291 0.615000
0.072667 -0.107116 0.614000
0.073623 -0.106942 0.613000
0.074454 -0.106593 0.611000
0.075402 -0.106419 0.610000
0.076346 -0.106244 0.609000
0.077287 -0.106070 0.608000
0.078224 -0.105895 0.607000
0.079158 -0.105721 0.606000
0.080220 -0.105721 0.606000
0.081015 -0.105372 0.604000
0.082074 -0.105372 0.604000
0.083133 -0.105372 0.604000
0.084052 -0.105197 0.603000
0.084968 -0.105023 0.602000
0.086024 -0.105023 0.602000
0.086935 -0.104848 0.601000
0.087988 -0.104848 0.601000
0.088894 -0.104674 0.600000
0.089946 -0.104674 0.600000
0.090998 -0.104674 0.600000
0.091897 -0.104500 0.599000
0.092792 -0.104325 0.598000
0.093683 -0.104151 0.597000
0.094730 -0.104151 0.597000
0.095777 -0.104151 0.597000
0.096661 -0.103976 0.596000
0.097706 -0.103976 0.596000
0.098751 -0.103976 0.596000
0.099796 -0.103976 0.596000
0.100841 -0.103976 0.596000
0.101886 -0.103976 0.596000
0.102931 -0.103976 0.596000
0.103802 -0.103802 0.595000
0.104845 -0.103802 0.595000
0.106066 -0.103976 0.596000
0.107111 -0.103976 0.596000
0.108156 -0.103976 0.596000
0.109201 -0.103976 0.596000
0.110246 -0.103976 0.596000
0.111291 -0.103976 0.596000
0.112336 -0.103976 0.596000
0.113381 -0.103976 0.596000
0.114426 -0.103976 0.596000
0.115471 -0.103976 0.596000
0.116516 -0.103976 0.596000
0.117758 -0.104151 0.597000
0.118606 -0.103976 0.596000
0.119852 -0.104151 0.597000
0.120898 -0.104151 0.597000
0.121945 -0.104151 0.597000
0.122992 -0.104151 0.597000
0.124039 -0.104151 0.597000
0.125085 -0.104151 0.597000
0.126343 -0.104325 0.598000
0.127605 -0.104500 0.599000
0.128655 -0.104500 0.599000
0.129705 -0.104500 0.599000
0.130974 -0.104674 0.600000
0.132246 -0.104848 0.601000
0.133300 -0.104848 0.601000
0.134577 -0.105023 0.602000
0.135858 -0.105197 0.603000
0.137142 -0.105372 0.604000
0.138201 -0.105372 0.604000
0.139952 -0.105895 0.607000
0.141016 -0.105895 0.607000
0.142549 -0.106244 0.609000
0.144088 -0.106593 0.611000
0.145872 -0.107116 0.614000
0.147188 -0.107291 0.615000
0.148989 -0.107814 0.618000
0.150073 -0.107814 0.618000
0.063313 -0.108458 0.628000
0.064311 -0.108285 0.627000
0.065202 -0.107940 0.625000
0.066192 -0.107767 0.624000
0.067070 -0.107421 0.622000
0.067942 -0.107076 0.620000
0.069029 -0.107076 0.620000
0.070003 -0.106903 0.619000
0.070743 -0.106385 0.616000
0.071707 -0.106213 0.615000
0.072667 -0.106040 0.614000
0.073623 -0.105867 0.613000
0.074576 -0.105694 0.612000
0.075402 -0.105349 0.610000
0.076346 -0.105176 0.609000
0.077287 -0.105004 0.608000
0.078224 -0.104831 0.607000
0.079158 -0.104658 0.606000
0.080220 -0.104658 0.606000
0.081283 -0.104658 0.606000
0.082074 -0.104313 0.604000
0.083133 -0.104313 0.604000
0.084052 -0.104140 0.603000
0.084968 -0.103967 0.602000
0.086024 -0.103967 0.602000
0.086935 -0.103795 0.601000
0.087988 -0.103795 0.601000
0.088894 -0.103622 0.600000
0.089946 -0.103622 0.600000
0.090998 -0.103622 0.600000
0.091897 -0.103449 0.599000
0.092792 -0.103277 0.598000
0.093683 -0.103104 0.597000
0.094730 -0.103104 0.597000
0.095777 -0.103104 0.597000
0.096661 -0.102931 0.596000
0.097706 -0.102931 0.596000
0.098586 -0.102758 0.595000
0.099629 -0.102758 0.595000
0.100672 -0.102758 0.595000
0.101715 -0.102758 0.595000
0.102758 -0.102758 0.595000
0.103802 -0.102758 0.595000
0.105021 -0.102931 0.596000
0.106066 -0.102931 0.596000
0.107111 -0.102931 0.596000
0.108156 -0.102931 0.596000
0.109201 -0.102931 0.596000
0.110246 -0.102931 0.596000
0.111478 -0.103104 0.597000
0.112336 -0.102931 0.596000
0.113381 -0.102931 0.596000
0.114426 -0.102931 0.596000
0.115471 -0.102931 0.596000
0.116516 -0.102931 0.596000
0.117758 -0.103104 0.597000
0.118805 -0.103104 0.597000
0.119852 -0.103104 0.597000
0.120898 -0.103104 0.597000
0.121945 -0.103104 0.597000
0.122992 -0.103104 0.597000
0.124039 -0.103104 0.597000
0.125085 -0.103104 0.597000
0.126555 -0.103449 0.599000
0.127605 -0.103449 0.599000
0.128870 -0.103622 0.600000
0.129922 -0.103622 0.600000
0.130974 -0.103622 0.600000
0.132246 -0.103795 0.601000
0.133300 -0.103795 0.601000
0.134577 -0.103967 0.602000
0.135858 -0.104140 0.603000
0.137142 -0.104313 0.604000
0.138659 -0.104658 0.606000
0.139952 -0.104831 0.607000
0.141249 -0.105004 0.608000
0.142549 -0.105176 0.609000
0.144088 -0.105522 0.611000
0.145635 -0.105867 0.613000
0.147188 -0.106213 0.615000
0.148507 -0.106385 0.616000
0.149587 -0.106385 0.616000
0.063212 -0.107186 0.627000
0.064311 -0.107186 0.627000
0.065202 -0.106844 0.625000
0.066192 -0.106673 0.624000
0.067178 -0.106502 0.623000
0.068051 -0.106160 0.621000
0.069029 -0.105989 0.620000
0.070003 -0.105818 0.619000
0.070743 -0.105305 0.616000
0.071707 -0.105134 0.615000
0.072667 -0.104963 0.614000
0.073623 -0.104792 0.613000
0.074576 -0.104621 0.612000
0.075402 -0.104279 0.610000
0.076346 -0.104109 0.609000
0.077414 -0.104109 0.609000
0.078224 -0.103767 0.607000
0.079288 -0.103767 0.607000
0.080220 -0.103596 0.606000
0.081015 -0.103254 0.604000
0.082074 -0.103254 0.604000
0.082995 -0.103083 0.603000
0.084052 -0.103083 0.603000
0.084968 -0.102912 0.602000
0.085881 -0.102741 0.601000
0.086935 -0.102741 0.601000
0.087842 -0.102570 0.600000
0.088894 -0.102570 0.600000
0.089946 -0.102570 0.600000
0.090998 -0.102570 0.600000
0.091897 -0.102399 0.599000
0.092792 -0.102228 0.598000
0.093683 -0.102057 0.597000
0.094730 -0.102057 0.597000
0.095777 -0.102057 0.597000
0.096661 -0.101886 0.596000
0.097706 -0.101886 0.596000
0.098586 -0.101715 0.595000
0.099796 -0.101886 0.596000
0.100841 -0.101886 0.596000
0.101886 -0.101886 0.596000
0.102931 -0.101886 0.596000
0.103802 -0.101715 0.595000
0.105021 -0.101886 0.596000
0.106066 -0.101886 0.596000
0.107111 -0.101886 0.596000
0.108156 -0.101886 0.596000
0.109201 -0.101886 0.596000
0.110246 -0.101886 0.596000
0.111291 -0.101886 0.596000
0.112336 -0.101886 0.596000
0.113381 -0.101886 0.596000
0.114426 -0.101886 0.596000
0.115471 -0.101886 0.596000
0.116516 -0.101886 0.596000
0.117758 -0.102057 0.597000
0.118805 -0.102057 0.597000
0.119651 -0.101886 0.596000
0.120898 -0.102057 0.597000
0.121945 -0.102057 0.597000
0.122992 -0.102057 0.597000
0.124039 -0.102057 0.597000
0.125085 -0.102057 0.597000
0.126132 -0.102057 0.597000
0.127605 -0.102399 0.599000
0.128870 -0.102570 0.600000
0.129922 -0.102570 0.600000
0.130974 -0.102570 0.600000
0.132026 -0.102570 0.600000
0.133300 -0.102741 0.601000
0.134577 -0.102912 0.602000
0.135858 -0.103083 0.603000
0.137142 -0.103254 0.604000
0.138659 -0.103596 0.606000
0.139952 -0.103767 0.607000
0.141249 -0.103938 0.608000
0.142549 -0.104109 0.609000
0.143852 -0.104279 0.610000
0.145635 -0.104792 0.613000
0.146949 -0.104963 0.614000
0.148266 -0.105134 0.615000
0.149345 -0.105134 0.615000
0.063212 -0.106086 0.627000
0.064106 -0.105748 0.625000
0.065098 -0.105579 0.624000
0.066192 -0.105579 0.624000
0.067070 -0.105240 0.622000
0.067942 -0.104902 0.620000
0.068917 -0.104733 0.619000
0.070003 -0.104733 0.619000
0.070743 -0.104225 0.616000
0.071707 -0.104056 0.615000
0.072667 -0.103887 0.614000
0.073623 -0.103718 0.613000
0.074576 -0.103548 0.612000
0.075402 -0.103210 0.610000
0.076472 -0.103210 0.610000
0.077414 -0.103041 0.609000
0.078224 -0.102702 0.607000
0.079288 -0.102702 0.607000
0.080220 -0.102533 0.606000
0.081283 -0.102533 0.606000
0.082074 -0.102195 0.604000
0.083133 -0.102195 0.604000
0.084052 -0.102026 0.603000
0.084968 -0.101856 0.602000
0.086024 -0.101856 0.602000
0.086935 -0.101687 0.601000
0.087988 -0.101687 0.601000
0.089042 -0.101687 0.601000
0.089946 -0.101518 0.600000
0.090998 -0.101518 0.600000
0.091897 -0.101349 0.599000
0.092947 -0.101349 0.599000
0.093840 -0.101180 0.598000
0.094730 -0.101010 0.597000
0.095777 -0.101010 0.597000
0.096661 -0.100841 0.596000
0.097706 -0.100841 0.596000
0.098586 -0.100672 0.595000
0.099629 -0.100672 0.595000
0.100841 -0.100841 0.596000
0.101886 -0.100841 0.596000
0.102931 -0.100841 0.596000
0.103802 -0.100672 0.595000
0.105021 -0.100841 0.596000
0.106066 -0.100841 0.596000
0.107111 -0.100841 0.596000
0.108156 -0.100841 0.596000
0.109201 -0.100841 0.596000
0.110246 -0.100841 0.596000
0.111291 -0.100841 0.596000
0.112336 -0.100841 0.596000
0.113381 -0.100841 0.596000
0.114426 -0.100841 0.596000
0.115471 -0.100841 0.596000
0.116516 -0.100841 0.596000
0.117561 -0.100841 0.596000
0.118606 -0.100841 0.596000
0.119651 -0.100841 0.596000
0.120898 -0.101010 0.597000
0.121945 -0.101010 0.597000
0.122992 -0.101010 0.597000
0.124246 -0.101180 0.598000
0.125295 -0.101180 0.598000
0.126343 -0.101180 0.598000
0.127605 -0.101349 0.599000
0.128655 -0.101349 0.599000
0.129922 -0.101518 0.600000
0.130974 -0.101518 0.600000
0.132246 -0.101687 0.601000
0.133300 -0.101687 0.601000
0.134577 -0.101856 0.602000
0.135858 -0.102026 0.603000
0.137142 -0.102195 0.604000
0.138201 -0.102195 0.604000
0.139952 -0.102702 0.607000
0.141481 -0.103041 0.609000
0.142783 -0.103210 0.610000
0.144324 -0.103548 0.612000
0.145872 -0.103887 0.614000
0.146949 -0.103887 0.614000
0.148266 -0.104056 0.615000
0.149345 -0.104056 0.615000
0.063212 -0.104987 0.627000
0.064106 -0.104652 0.625000
0.065098 -0.104485 0.624000
0.066086 -0.104317 0.623000
0.066962 -0.103982 0.621000
0.067942 -0.103815 0.620000
0.068917 -0.103647 0.619000
0.070003 -0.103647 0.619000
0.070973 -0.103480 0.618000
0.071707 -0.102978 0.615000
0.072667 -0.102810 0.614000
0.073623 -0.102643 0.613000
0.074576 -0.102475 0.612000
0.075402 -0.102140 0.610000
0.076472 -0.102140 0.610000
0.077414 -0.101973 0.609000
0.078224 -0.101638 0.607000
0.079288 -0.101638 0.607000
0.080220 -0.101471 0.606000
0.081283 -0.101471 0.606000
0.082074 -0.101136 0.604000
0.083133 -0.101136 0.604000
0.084052 -0.100968 0.603000
0.085109 -0.100968 0.603000
0.086024 -0.100801 0.602000
0.086935 -0.100633 0.601000
0.087988 -0.100633 0.601000
0.089042 -0.100633 0.601000
0.089946 -0.100466 0.600000
0.090998 -0.100466 0.600000
0.091897 -0.100299 0.599000
0.092947 -0.100299 0.599000
0.093840 -0.100131 0.598000
0.094730 -0.099964 0.597000
0.095777 -0.099964 0.597000
0.096661 -0.099796 0.596000
0.097706 -0.099796 0.596000
0.098586 -0.099629 0.595000
0.099629 -0.099629 0.595000
0.100841 -0.099796 0.596000
0.101715 -0.099629 0.595000
0.102758 -0.099629 0.595000
0.103802 -0.099629 0.595000
0.105021 -0.099796 0.596000
0.106066 -0.099796 0.596000
0.107111 -0.099796 0.596000
0.108156 -0.099796 0.596000
0.109201 -0.099796 0.596000
0.110246 -0.099796 0.596000
0.111291 -0.099796 0.596000
0.112336 -0.099796 0.596000
0.113381 -0.099796 0.596000
0.114426 -0.099796 0.596000
0.115471 -0.099796 0.596000
0.116516 -0.099796 0.596000
0.117758 -0.099964 0.597000
0.118805 -0.099964 0.597000
0.119651 -0.099796 0.596000
0.120696 -0.099796 0.596000
0.121945 -0.099964 0.597000
0.122992 -0.099964 0.597000
0.124246 -0.100131 0.598000
0.125295 -0.100131 0.598000
0.126343 -0.100131 0.598000
0.127605 -0.100299 0.599000
0.128655 -0.100299 0.599000
0.129922 -0.100466 0.600000
0.130974 -0.100466 0.600000
0.132246 -0.100633 0.601000
0.133300 -0.100633 0.601000
0.134577 -0.100801 0.602000
0.135858 -0.100968 0.603000
0.137142 -0.101136 0.604000
0.138201 -0.101136 0.604000
0.139952 -0.101638 0.607000
0.141481 -0.101973 0.609000
0.142783 -0.102140 0.610000
0.144088 -0.102308 0.611000
0.145635 -0.102643 0.613000
0.146709 -0.102643 0.613000
0.148025 -0.102810 0.614000
0.149102 -0.102810 0.614000
0.150667 -0.103145 0.616000
0.064311 -0.103888 0.627000
0.065202 -0.103556 0.625000
0.066086 -0.103225 0.623000
0.066962 -0.102893 0.621000
0.067942 -0.102728 0.620000
0.068917 -0.102562 0.619000
0.070003 -0.102562 0.619000
0.070973 -0.102396 0.618000
0.071824 -0.102065 0.616000
0.072785 -0.101899 0.615000
0.073623 -0.101568 0.613000
0.074576 -0.101402 0.612000
0.075402 -0.101071 0.610000
0.076472 -0.101071 0.610000
0.077414 -0.100905 0.609000
0.078353 -0.100740 0.608000
0.079288 -0.100574 0.607000
0.080220 -0.100408 0.606000
0.081283 -0.100408 0.606000
