# .PCD v0.7
VERSION 0.7
FIELDS x y z
SIZE 4 4 4
TYPE F F F
COUNT 1 1 1
WIDTH 1772
HEIGHT 1
VIEWPOINT 0 0 0 1 0 0 0
POINTS 1772
DATA ascii
0.132979 0.005591 0.572587
0.133750 0.006363 0.574703
0.134813 0.005667 0.573385
0.133658 0.004108 0.574871
0.134297 0.005447 0.576202
0.134862 0.004052 0.575010
0.134690 0.005269 0.575724
0.133296 0.004906 0.576518
0.136424 0.003916 0.577230
0.136848 0.005487 0.578359
0.136658 0.006139 0.578239
0.135511 0.006712 0.579357
0.137878 0.006111 0.578424
0.137876 0.004729 0.578091
0.136569 0.006647 0.579661
0.135825 0.003763 0.579913
0.137455 0.006687 0.581398
0.139151 0.004056 0.579253
0.138866 0.004732 0.581209
0.137584 0.005962 0.582382
0.139736 0.006509 0.583019
0.140171 0.005063 0.583710
0.137956 0.004597 0.581511
0.139058 0.006130 0.583367
0.137558 0.004788 0.584241
0.140729 0.004655 0.585362
0.141379 0.004058 0.584728
0.140379 0.005928 0.583259
0.140990 0.006600 0.584532
0.139998 0.006513 0.586824
0.141220 0.006403 0.586002
0.141074 0.006097 0.586377
0.139762 0.005671 0.587691
0.139885 0.005873 0.587463
0.140860 0.006214 0.590288
0.140421 0.006283 0.589607
0.142525 0.005409 0.590796
0.139672 0.004228 0.589767
0.141638 0.005613 0.588586
0.143255 0.005897 0.589749
0.143140 0.006136 0.591308
0.141209 0.006753 0.592054
0.143115 0.004984 0.593157
0.141125 0.006665 0.593283
0.141176 0.005771 0.593028
0.141477 0.004560 0.592754
0.142708 0.005808 0.594756
0.143210 0.003729 0.594687
0.142372 0.004236 0.594079
0.143418 0.005246 0.597709
0.143986 0.004547 0.596570
0.143571 0.006864 0.598292
0.141754 0.004414 0.596220
0.141603 0.006555 0.598452
0.143097 0.005463 0.598944
0.143897 0.004060 0.598925
0.144107 0.006742 0.598355
0.142614 0.007799 0.599940
0.142056 0.005980 0.599972
0.142601 0.006504 0.600455
0.143071 0.005291 0.602328
0.141496 0.003214 0.602829
0.141863 0.005093 0.604050
0.142639 0.006272 0.601434
0.143945 0.006411 0.603662
0.142094 0.005819 0.603261
0.142902 0.007477 0.604485
0.141923 0.006765 0.604762
0.140741 0.005410 0.605206
0.140611 0.006550 0.605563
0.144331 0.004982 0.606645
0.142563 0.006993 0.606983
0.141156 0.007710 0.608371
0.142460 0.005842 0.606480
0.140809 0.006810 0.608013
0.142340 0.005286 0.608544
0.140941 0.006176 0.611612
0.140078 0.006362 0.610835
0.139303 0.006767 0.610276
0.141157 0.006120 0.611423
0.141065 0.006424 0.611532
0.141743 0.004833 0.610861
0.142715 0.006311 0.611532
0.139445 0.004988 0.612363
0.140951 0.007042 0.614504
0.140643 0.003717 0.612308
0.139585 0.005537 0.612957
0.139104 0.007335 0.614296
0.140558 0.006788 0.614864
0.139602 0.006087 0.614408
0.140303 0.005551 0.616677
0.140816 0.006721 0.616645
0.139674 0.007107 0.617494
0.140046 0.006055 0.617183
0.138669 0.005076 0.617585
0.138710 0.005637 0.618874
0.138385 0.005263 0.619068
0.136174 0.004751 0.619548
0.138077 0.006708 0.617938
0.137326 0.004745 0.619252
0.136448 0.006558 0.620357
0.137638 0.004649 0.621084
0.135370 0.005042 0.620199
0.134208 0.005978 0.622575
0.137200 0.004240 0.622222
0.136824 0.004389 0.622023
0.137720 0.004710 0.623852
0.135682 0.006368 0.624691
0.134507 0.005582 0.624217
0.135835 0.004808 0.624618
0.135410 0.004789 0.623897
0.133168 0.006435 0.625898
0.135075 0.005845 0.625700
0.133237 0.005526 0.624948
0.133024 0.003249 0.625998
0.131614 0.006489 0.624765
0.132563 0.006849 0.626955
0.131368 0.005978 0.628689
0.133328 0.006198 0.627886
0.132183 0.004410 0.628809
0.129787 0.005705 0.628071
0.131209 0.006205 0.627275
0.130335 0.006535 0.627734
0.132132 0.005202 0.629551
0.131033 0.005799 0.631727
0.129332 0.004496 0.630694
0.130866 0.003444 0.633002
0.129485 0.007022 0.631577
0.129809 0.006541 0.633104
0.128986 0.004900 0.632260
0.128747 0.004819 0.631619
0.128065 0.006281 0.633816
0.127378 0.006768 0.633832
0.128226 0.005298 0.631715
0.124714 0.007365 0.633263
0.125945 0.005075 0.632373
0.123188 0.007204 0.633777
0.124854 0.005442 0.633377
0.125536 0.005892 0.634816
0.124305 0.005904 0.633820
0.124876 0.004941 0.634523
0.125553 0.005479 0.636208
0.122685 0.004891 0.635424
0.123620 0.005634 0.637215
0.123232 0.005107 0.635688
0.121859 0.005954 0.637798
0.121572 0.005838 0.636482
0.122032 0.005990 0.636214
0.120633 0.009785 0.564007
0.121318 0.008841 0.564146
0.121628 0.008547 0.563298
0.120861 0.008718 0.562756
0.122487 0.009096 0.564091
0.121502 0.008058 0.563358
0.124499 0.008596 0.561223
0.124164 0.009700 0.566914
0.124708 0.009689 0.566184
0.124434 0.008674 0.564557
0.125015 0.008310 0.565712
0.126775 0.009536 0.565984
0.125599 0.007451 0.566619
0.125545 0.009087 0.566925
0.128306 0.008341 0.566263
0.128520 0.007062 0.566444
0.127831 0.008222 0.568673
0.127450 0.010906 0.567687
0.128261 0.007906 0.568700
0.128653 0.008266 0.569047
0.127771 0.009727 0.568855
0.127939 0.009898 0.568633
0.130088 0.008772 0.570776
0.130166 0.008719 0.567901
0.130529 0.010030 0.571256
0.131414 0.009336 0.571260
0.131971 0.009573 0.570048
0.130729 0.007839 0.572465
0.131616 0.007125 0.571733
0.133096 0.009803 0.574210
0.131593 0.009905 0.573219
0.132821 0.007966 0.574075
0.132742 0.008830 0.574131
0.134280 0.008570 0.571489
0.133454 0.007346 0.572795
0.132666 0.007692 0.574678
0.134848 0.008809 0.574905
0.132570 0.010162 0.573951
0.134101 0.006268 0.578126
0.133609 0.008629 0.574604
0.136492 0.009998 0.577407
0.134773 0.009019 0.575853
0.136556 0.009237 0.578270
0.135467 0.009111 0.577375
0.136124 0.009200 0.579743
0.136195 0.009031 0.579258
0.136002 0.008322 0.578169
0.137464 0.011371 0.580053
0.137451 0.008493 0.581906
0.138573 0.009552 0.582728
0.137784 0.009739 0.581122
0.137320 0.010596 0.581424
0.141063 0.010752 0.581125
0.137981 0.008759 0.582815
0.139823 0.008922 0.583243
0.139695 0.006639 0.583025
0.140659 0.009148 0.581745
0.139254 0.008736 0.584118
0.138139 0.009583 0.584908
0.140246 0.009999 0.586017
0.139172 0.008366 0.585216
0.139657 0.008715 0.584363
0.139972 0.009847 0.586289
0.140228 0.010006 0.587427
0.139822 0.010131 0.588601
0.141224 0.010217 0.587046
0.141536 0.009044 0.589212
0.141990 0.009100 0.587296
0.141076 0.009435 0.592004
0.140788 0.007627 0.590747
0.141733 0.009163 0.590792
0.141072 0.010101 0.590568
0.141799 0.009918 0.591853
0.141293 0.008820 0.592293
0.140130 0.009375 0.592857
0.140594 0.010446 0.591239
0.138919 0.009285 0.592370
0.142175 0.008408 0.594290
0.143298 0.011984 0.594055
0.142652 0.010039 0.594242
0.142884 0.008859 0.596755
0.139546 0.008364 0.596169
0.142439 0.009020 0.597579
0.143668 0.007430 0.595904
0.141760 0.008300 0.597525
0.140689 0.009584 0.598016
0.141809 0.009127 0.596385
0.141415 0.009098 0.598700
0.142189 0.009296 0.598352
0.141860 0.006894 0.600873
0.141323 0.010038 0.599251
0.142027 0.008081 0.600086
0.142699 0.008049 0.602526
0.141213 0.008594 0.599329
0.142191 0.008282 0.603556
0.144829 0.007907 0.602950
0.142094 0.009013 0.602550
0.141222 0.009591 0.604758
0.141350 0.009020 0.602452
0.142735 0.009976 0.607408
0.142511 0.008524 0.604475
0.142410 0.008988 0.606835
0.141712 0.009965 0.606505
0.142424 0.007449 0.606592
0.141473 0.008002 0.608784
0.139611 0.007035 0.607353
0.142378 0.009255 0.606961
0.140969 0.010154 0.608845
0.141351 0.007536 0.608831
0.140435 0.008380 0.608836
0.140890 0.008610 0.609824
0.143041 0.009484 0.610622
0.141896 0.008684 0.610727
0.139571 0.008080 0.610198
0.139852 0.008662 0.611164
0.142909 0.009158 0.609666
0.138787 0.008520 0.613171
0.142009 0.007421 0.612745
0.140308 0.009188 0.613229
0.140070 0.007019 0.614841
0.138639 0.008908 0.615694
0.139647 0.009428 0.615099
0.139619 0.009352 0.615458
0.138545 0.009698 0.617013
0.139412 0.008691 0.616008
0.139268 0.009544 0.615238
0.137650 0.008254 0.618155
0.136736 0.008768 0.617172
0.136718 0.009354 0.619446
0.138850 0.009725 0.620042
0.137827 0.007918 0.620747
0.138412 0.009354 0.618626
0.138432 0.008624 0.620786
0.137568 0.008222 0.620394
0.136622 0.008020 0.622335
0.136800 0.008694 0.621350
0.136920 0.006639 0.622366
0.136396 0.007373 0.621889
0.134966 0.008801 0.623406
0.138302 0.008793 0.622871
0.135899 0.009736 0.623756
0.133594 0.008777 0.625628
0.134272 0.009012 0.623738
0.135008 0.008341 0.624085
0.135920 0.007859 0.625645
0.134437 0.008117 0.626174
0.133441 0.006785 0.626485
0.133328 0.008847 0.624169
0.133559 0.006381 0.624997
0.131402 0.010372 0.626795
0.134633 0.008443 0.628125
0.130339 0.009511 0.627271
0.134060 0.007674 0.628142
0.131035 0.006951 0.630025
0.130151 0.009452 0.630143
0.129387 0.009603 0.627708
0.130742 0.010744 0.629550
0.129565 0.008964 0.631100
0.128128 0.008097 0.632974
0.128083 0.008000 0.631889
0.128959 0.008879 0.630028
0.128225 0.009735 0.632551
0.127341 0.011122 0.631055
0.126912 0.009196 0.632474
0.129236 0.009076 0.632203
0.127548 0.007657 0.633588
0.128228 0.008699 0.630021
0.125797 0.009166 0.634117
0.126431 0.007605 0.635211
0.123315 0.009658 0.633600
0.125991 0.009194 0.633708
0.125206 0.008206 0.633437
0.123163 0.008216 0.634868
0.122598 0.009820 0.634973
0.122100 0.007031 0.633882
0.122460 0.007745 0.635510
0.123097 0.009424 0.637177
0.122902 0.009139 0.636064
0.121013 0.007772 0.638650
0.120935 0.008896 0.636627
0.120299 0.009368 0.563160
0.121970 0.012864 0.563738
0.122325 0.012744 0.563420
0.122431 0.012336 0.563366
0.123784 0.012568 0.564444
0.125210 0.013190 0.563118
0.124829 0.012678 0.564219
0.123517 0.012349 0.563518
0.123072 0.011671 0.564524
0.125135 0.011153 0.565259
0.124874 0.011163 0.567156
0.126250 0.011202 0.567276
0.125868 0.011759 0.567189
0.128106 0.013128 0.566817
0.127776 0.011611 0.566999
0.127700 0.012942 0.566880
0.128054 0.012335 0.567735
0.128790 0.013780 0.566512
0.128645 0.011129 0.568838
0.129189 0.014384 0.569059
0.131596 0.013616 0.570202
0.129474 0.010221 0.569337
0.129997 0.012523 0.569047
0.131373 0.011953 0.571312
0.133153 0.012589 0.570719
0.131763 0.013101 0.571192
0.131344 0.012538 0.572412
0.130781 0.011439 0.573299
0.131846 0.011824 0.571004
0.130333 0.012580 0.572718
0.132189 0.011586 0.571459
0.133757 0.011244 0.574914
0.133168 0.011451 0.574358
0.133641 0.010724 0.573170
0.133738 0.011627 0.575796
0.133455 0.011589 0.573286
0.133433 0.013848 0.574544
0.136149 0.012237 0.574269
0.135801 0.013150 0.577412
0.135436 0.013369 0.576753
0.136494 0.011427 0.576050
0.134979 0.014311 0.578834
0.136044 0.012119 0.577663
0.136923 0.013511 0.576900
0.135273 0.011687 0.578868
0.135975 0.011563 0.578762
0.134466 0.011826 0.580373
0.137966 0.012047 0.579613
0.138766 0.012632 0.579966
0.137010 0.011059 0.580543
0.137183 0.013813 0.582771
0.138399 0.012758 0.583037
0.138115 0.012675 0.582290
0.137794 0.013964 0.582377
0.141164 0.013183 0.583512
0.137337 0.013576 0.582010
0.141098 0.012472 0.583967
0.139477 0.010276 0.584685
0.139576 0.012134 0.584514
0.140985 0.013059 0.586633
0.139853 0.012304 0.585074
0.139804 0.012046 0.585467
0.141636 0.009416 0.586174
0.141288 0.011998 0.586951
0.139770 0.013776 0.589394
0.139873 0.011349 0.587855
0.141663 0.010779 0.588908
0.141274 0.010383 0.588914
0.141133 0.011156 0.588436
0.141266 0.012820 0.591538
0.141493 0.011034 0.590535
0.141304 0.013497 0.589647
0.140884 0.012779 0.591957
0.140808 0.011163 0.591801
0.141136 0.011891 0.592980
0.141498 0.012509 0.592192
0.142200 0.010812 0.592218
0.141101 0.012837 0.592220
0.141963 0.013334 0.594556
0.141935 0.012416 0.595680
0.141312 0.014484 0.596762
0.144028 0.009713 0.595255
0.142823 0.013173 0.594558
0.145379 0.010995 0.598194
0.143461 0.013181 0.596434
0.143393 0.012423 0.596499
0.142291 0.013292 0.598534
0.143224 0.014376 0.598641
0.142781 0.010751 0.599196
0.143450 0.013491 0.598939
0.143246 0.012720 0.601551
0.143916 0.013017 0.600227
0.142755 0.012351 0.601406
0.140901 0.012576 0.600929
0.142275 0.011896 0.603403
0.141904 0.011796 0.601065
0.143014 0.013864 0.604363
0.143462 0.013225 0.604438
0.142982 0.013642 0.602145
0.140097 0.011603 0.604968
0.142094 0.011391 0.603913
0.141715 0.011613 0.605695
0.141637 0.011125 0.605818
0.142493 0.014661 0.606912
0.143239 0.011822 0.606872
0.141406 0.012411 0.607007
0.140104 0.012684 0.607986
0.142076 0.011957 0.607826
0.140530 0.013114 0.609458
0.140825 0.011704 0.609933
0.140477 0.012012 0.609433
0.142552 0.010991 0.612382
0.140869 0.011626 0.611353
0.142242 0.012556 0.611490
0.140591 0.012653 0.611103
0.141977 0.012943 0.613026
0.139382 0.010868 0.612573
0.142020 0.010819 0.612902
0.140928 0.012733 0.614131
0.140096 0.012552 0.615388
0.140879 0.011378 0.614147
0.139878 0.013365 0.615422
0.139352 0.011377 0.615394
0.138387 0.011171 0.617241
0.138810 0.012755 0.614341
0.139763 0.011955 0.617873
0.139596 0.012872 0.616158
0.137949 0.011306 0.618160
0.138382 0.011007 0.618020
0.138717 0.011532 0.621009
0.137352 0.012430 0.619228
0.138564 0.010334 0.618971
0.137209 0.012856 0.619492
0.137695 0.012376 0.622019
0.136901 0.010603 0.621962
0.134763 0.011996 0.621063
0.135669 0.010884 0.620997
0.136435 0.012160 0.623265
0.135898 0.011759 0.622313
0.136051 0.012874 0.623867
0.135504 0.013350 0.622643
0.134985 0.009646 0.623012
0.136327 0.013078 0.624177
0.134631 0.010531 0.624823
0.133378 0.012535 0.625461
0.132769 0.012271 0.625829
0.133676 0.011965 0.623732
0.134897 0.013793 0.625552
0.132678 0.012116 0.627334
0.131012 0.014265 0.625069
0.132507 0.012032 0.627548
0.132525 0.011604 0.627416
0.130893 0.011094 0.628550
0.130156 0.013085 0.628941
0.130345 0.013815 0.627296
0.131574 0.011882 0.629358
0.131429 0.011920 0.631774
0.129598 0.013071 0.631450
0.129922 0.013061 0.630254
0.127593 0.013248 0.630131
0.128581 0.012359 0.630403
0.128605 0.012860 0.630643
0.127604 0.011306 0.631091
0.128728 0.012474 0.633654
0.126169 0.011574 0.630486
0.127365 0.013621 0.630366
0.127016 0.010017 0.634530
0.127228 0.010740 0.633091
0.127066 0.013254 0.633202
0.125846 0.013788 0.634486
0.126292 0.013613 0.635387
0.124822 0.011833 0.634157
0.124183 0.011952 0.633976
0.123368 0.012307 0.634647
0.121163 0.011475 0.634564
0.121812 0.013323 0.635811
0.123226 0.011542 0.636973
0.121465 0.011807 0.635662
0.121040 0.011458 0.636640
0.121717 0.012027 0.637346
0.120956 0.014658 0.562264
0.122274 0.015068 0.564272
0.123077 0.013431 0.563778
0.121806 0.015589 0.564147
0.122035 0.014790 0.563597
0.123410 0.016695 0.563348
0.122904 0.015704 0.563124
0.126338 0.014462 0.565950
0.124942 0.015459 0.565064
0.124639 0.014972 0.563919
0.127781 0.016300 0.564665
0.126499 0.017200 0.566752
0.127201 0.015345 0.566787
0.127956 0.016221 0.567700
0.128617 0.014028 0.569243
0.128503 0.015452 0.567527
0.126947 0.013413 0.567051
0.126632 0.016641 0.568591
0.127949 0.015155 0.569390
0.128738 0.015123 0.569772
0.127906 0.014839 0.568909
0.130842 0.014597 0.569022
0.129842 0.016269 0.570067
0.129295 0.015316 0.568852
0.130709 0.016671 0.572696
0.130319 0.017518 0.569646
0.130777 0.015170 0.570733
0.132407 0.015447 0.570115
0.133307 0.016354 0.571999
0.132331 0.014992 0.572539
0.133369 0.016183 0.572411
0.133655 0.016897 0.572491
0.134153 0.014253 0.574174
0.133402 0.014004 0.572257
0.134236 0.016000 0.573308
0.133442 0.017195 0.575437
0.134476 0.015379 0.574118
0.133643 0.016735 0.576821
0.135479 0.012316 0.575853
0.135742 0.015694 0.576041
0.136048 0.014940 0.577126
0.136157 0.016279 0.576491
0.137224 0.015202 0.578215
0.134573 0.015273 0.577222
0.136146 0.015481 0.578337
0.137108 0.015908 0.578311
0.138296 0.014623 0.580469
0.135779 0.015982 0.578623
0.137947 0.016075 0.578834
0.137884 0.014658 0.580164
0.137182 0.016685 0.580641
0.139870 0.015825 0.582271
0.138584 0.015295 0.581447
0.139687 0.015654 0.582502
0.138046 0.015985 0.584983
0.138875 0.014884 0.584469
0.141759 0.017237 0.583015
0.139396 0.015133 0.584022
0.139471 0.016123 0.584546
0.139874 0.015363 0.585170
0.140004 0.015637 0.584804
0.140568 0.015069 0.584976
0.140358 0.016872 0.585416
0.142771 0.017394 0.586732
0.140446 0.016830 0.587592
0.141084 0.015893 0.589127
0.141485 0.015305 0.587669
0.141482 0.014420 0.590856
0.141107 0.015872 0.588752
0.141060 0.016656 0.589188
0.143996 0.016208 0.591528
0.140980 0.014476 0.592068
0.141243 0.015887 0.592900
0.141967 0.015169 0.592007
0.142032 0.014863 0.592129
0.142144 0.014895 0.593578
0.141509 0.014937 0.593264
0.139926 0.014904 0.595487
0.139903 0.014610 0.594322
0.141116 0.015728 0.594102
0.141844 0.014496 0.594694
0.143052 0.014776 0.596891
0.142578 0.015482 0.595844
0.142813 0.016031 0.596488
0.141932 0.015027 0.595706
0.142773 0.016920 0.598993
0.142277 0.016582 0.598017
0.144048 0.014708 0.598860
0.143850 0.014420 0.598293
0.142897 0.017370 0.601141
0.142044 0.014680 0.601473
0.141561 0.015057 0.602205
0.142833 0.014979 0.601719
0.143271 0.015496 0.601652
0.141702 0.015170 0.603279
0.143565 0.015346 0.601235
0.141979 0.014600 0.602182
0.143903 0.015006 0.604165
0.143598 0.016220 0.602870
0.143460 0.015686 0.603976
0.142299 0.016919 0.605724
0.141011 0.013829 0.605408
0.140811 0.016539 0.606587
0.140331 0.015619 0.606367
0.142924 0.014760 0.606897
0.143348 0.016220 0.606332
0.143710 0.013784 0.607460
0.142623 0.015942 0.607632
0.140656 0.015687 0.608012
0.140744 0.014967 0.607906
0.142033 0.014268 0.610039
0.140228 0.015271 0.610315
0.140147 0.014883 0.611519
0.138509 0.017137 0.611285
0.140131 0.015620 0.610443
0.141859 0.015050 0.612882
0.140990 0.013544 0.612864
0.138230 0.016072 0.614011
0.138545 0.013952 0.614495
0.141863 0.015482 0.615242
0.139958 0.015565 0.614175
0.140013 0.015503 0.615046
0.138716 0.015593 0.614585
0.140398 0.014716 0.614727
0.139561 0.015763 0.615839
0.138017 0.015692 0.616611
0.139523 0.017145 0.618308
0.138124 0.015809 0.619139
0.137132 0.016411 0.619114
0.138164 0.013777 0.618375
0.137556 0.015494 0.617862
0.136624 0.014488 0.618995
0.137929 0.014653 0.620204
0.135654 0.016348 0.620972
0.136755 0.014765 0.620078
0.138077 0.014898 0.623113
0.137319 0.015831 0.621768
0.135703 0.013729 0.621518
0.136069 0.014902 0.622189
0.135770 0.017038 0.624676
0.134048 0.015924 0.623109
0.134160 0.015996 0.626082
0.134926 0.016121 0.623470
0.133956 0.015031 0.623611
0.132797 0.014488 0.624780
0.132815 0.016463 0.625252
0.133713 0.013982 0.623647
0.132838 0.014856 0.624921
0.132051 0.015006 0.628409
0.132901 0.015420 0.627060
0.132270 0.015202 0.628479
0.132556 0.016384 0.629226
0.131916 0.015363 0.630535
0.130080 0.014942 0.627985
0.132570 0.016985 0.629031
0.131289 0.013924 0.631042
0.128738 0.016506 0.631108
0.129499 0.015730 0.630156
0.131302 0.015128 0.628062
0.129360 0.014374 0.631516
0.128902 0.015484 0.630677
0.127933 0.014894 0.631893
0.126223 0.013923 0.631748
0.127439 0.015997 0.631439
0.125640 0.014647 0.631299
0.126057 0.014684 0.631336
0.125875 0.015625 0.634806
0.126226 0.016363 0.633616
0.126493 0.015397 0.633461
0.125860 0.015900 0.634313
0.124828 0.016563 0.634016
0.124199 0.016480 0.634264
0.125191 0.015562 0.637720
0.122870 0.015547 0.633256
0.124696 0.017393 0.636275
0.123067 0.014688 0.636691
0.121450 0.015146 0.634437
0.122550 0.015795 0.638405
0.121747 0.015863 0.637001
0.120773 0.015931 0.637666
0.121037 0.018082 0.563105
0.119752 0.021462 0.564198
0.122474 0.018244 0.561952
0.123664 0.019659 0.563297
0.122675 0.019175 0.562880
0.123036 0.019710 0.567310
0.124303 0.018457 0.563112
0.123791 0.018638 0.563794
0.124163 0.019637 0.564963
0.124679 0.019811 0.566040
0.126465 0.020295 0.565135
0.125471 0.021219 0.564829
0.126598 0.019920 0.564548
0.126761 0.019127 0.566404
0.126742 0.018323 0.566768
0.127040 0.019395 0.566131
0.127257 0.018247 0.566189
0.130717 0.021730 0.567604
0.129532 0.019145 0.567186
0.129468 0.019850 0.569140
0.128186 0.019234 0.569241
0.129274 0.018403 0.570887
0.128831 0.018049 0.569975
0.128121 0.019962 0.571694
0.131189 0.018403 0.570745
0.133124 0.019344 0.572355
0.131281 0.019773 0.571474
0.131593 0.017541 0.571171
0.133802 0.020422 0.572588
0.130784 0.018733 0.571736
0.132515 0.019121 0.572106
0.131714 0.020362 0.574312
0.132563 0.019411 0.572426
0.133652 0.017770 0.574750
0.133430 0.018371 0.573774
0.133703 0.018736 0.574697
0.133736 0.019267 0.575089
0.134433 0.019691 0.574731
0.133987 0.019368 0.575766
0.134090 0.020631 0.578273
0.135810 0.020952 0.576497
0.135825 0.019844 0.577803
0.136304 0.019377 0.576778
0.135093 0.019947 0.579452
0.137680 0.020559 0.578175
0.136418 0.018413 0.579532
0.137792 0.018070 0.578885
0.136174 0.019853 0.578346
0.138908 0.018216 0.581495
0.136153 0.018658 0.579719
0.139854 0.019945 0.581534
0.138445 0.019900 0.581002
0.138252 0.019931 0.582296
0.137946 0.020274 0.583516
0.138862 0.017386 0.584075
0.138590 0.019098 0.582851
0.140633 0.019168 0.582073
0.138742 0.019366 0.583689
0.138578 0.018266 0.584474
0.138115 0.017558 0.584543
0.140392 0.019491 0.586030
0.141619 0.017879 0.585603
0.140297 0.019234 0.586168
0.139787 0.017303 0.585364
0.139648 0.020330 0.588698
0.139993 0.022584 0.586680
0.142241 0.017937 0.586784
0.141390 0.019527 0.587569
0.140642 0.018741 0.587530
0.140529 0.018187 0.589800
0.143192 0.018437 0.588463
0.140330 0.018752 0.588840
0.140793 0.018938 0.590586
0.142554 0.019154 0.591988
0.140820 0.016930 0.594186
0.141635 0.018198 0.591316
0.141908 0.018631 0.593566
0.142095 0.019687 0.594494
0.142537 0.019330 0.594883
0.141971 0.019655 0.592064
0.142843 0.016492 0.594869
0.141202 0.016795 0.595114
0.141581 0.018384 0.597359
0.143724 0.019468 0.595594
0.142547 0.017737 0.599025
0.142973 0.018715 0.598424
0.140939 0.019486 0.595918
0.142744 0.018286 0.597167
0.142841 0.017788 0.600577
0.143423 0.019243 0.598968
0.143081 0.019843 0.600861
0.141000 0.019070 0.601387
0.142696 0.018088 0.602423
0.141394 0.018560 0.601233
0.143772 0.019261 0.602439
0.143292 0.020558 0.603109
0.143509 0.019477 0.602872
0.143123 0.019239 0.602380
0.143637 0.019050 0.604838
0.141593 0.018735 0.605149
0.141681 0.019556 0.604925
0.140352 0.019670 0.604237
0.140162 0.017870 0.607039
0.141698 0.018171 0.607185
0.141220 0.019880 0.606150
0.140581 0.020897 0.606215
0.140290 0.017015 0.608406
0.139996 0.019102 0.608020
0.140783 0.017530 0.607897
0.142918 0.019486 0.609259
0.141145 0.020072 0.610429
0.140849 0.019375 0.609318
0.140091 0.019296 0.610900
0.139641 0.018253 0.612404
0.138953 0.018136 0.613581
0.139077 0.018199 0.611078
0.139673 0.020342 0.614342
0.140506 0.018810 0.613255
0.139577 0.020865 0.613987
0.141410 0.018592 0.616075
0.137283 0.019233 0.615113
0.139611 0.019991 0.616307
0.137141 0.019332 0.614565
0.140008 0.018460 0.615972
0.138618 0.019655 0.616255
0.138945 0.020269 0.616275
0.139043 0.019907 0.617434
0.138399 0.019403 0.617755
0.137377 0.018651 0.616480
0.137856 0.019245 0.617911
0.138249 0.017999 0.618148
0.137160 0.018440 0.619265
0.138878 0.019678 0.620991
0.137150 0.018716 0.621515
0.137443 0.019440 0.621321
0.135968 0.018038 0.621316
0.133668 0.017491 0.624285
0.134968 0.017185 0.622698
0.135565 0.018053 0.622192
0.134424 0.019096 0.622073
0.134770 0.019476 0.624331
0.136540 0.018638 0.625127
0.136621 0.017830 0.623852
0.133963 0.017938 0.626624
0.133474 0.018080 0.625812
0.134822 0.017852 0.625998
0.132315 0.019049 0.626202
0.134741 0.019786 0.624595
0.131702 0.018395 0.626300
0.132181 0.019676 0.627700
0.131603 0.020635 0.625066
0.131007 0.017965 0.627975
0.132936 0.018356 0.629431
0.130913 0.019948 0.628550
0.130447 0.017820 0.630357
0.130627 0.019816 0.627255
0.131201 0.018526 0.628751
0.130190 0.018509 0.629268
0.127654 0.019865 0.631536
0.129577 0.020198 0.631976
0.129176 0.020162 0.632010
0.128425 0.020376 0.631452
0.129516 0.018920 0.631252
0.127855 0.018640 0.631996
0.128242 0.018017 0.631112
0.127996 0.018068 0.631544
0.126768 0.017765 0.635432
0.127217 0.019480 0.632323
0.124736 0.020311 0.634606
0.125375 0.018914 0.633389
0.124466 0.018324 0.634701
0.124132 0.018694 0.634734
0.124479 0.018721 0.637587
0.125495 0.018709 0.633396
0.120858 0.018894 0.635239
0.121910 0.021191 0.634108
0.122125 0.017286 0.635680
0.122941 0.018457 0.637219
0.120171 0.018554 0.636617
0.121795 0.019281 0.635766
0.119102 0.024597 0.565132
0.122034 0.021270 0.563391
0.122212 0.021844 0.563280
0.122647 0.023349 0.564092
0.122448 0.022406 0.563356
0.122833 0.022596 0.564591
0.123567 0.023226 0.564848
0.124602 0.022211 0.566597
0.124777 0.021650 0.565230
0.127032 0.021799 0.565551
0.125619 0.020594 0.564515
0.125057 0.022034 0.567370
0.125998 0.022771 0.567230
0.125181 0.022901 0.566150
0.127064 0.022063 0.565681
0.127025 0.022929 0.567780
0.128634 0.022154 0.569104
0.127526 0.022043 0.568513
0.128141 0.020733 0.568422
0.130701 0.022540 0.568369
0.128211 0.022559 0.568917
0.129858 0.020421 0.568594
0.131927 0.022649 0.569659
0.131115 0.022216 0.569590
0.131328 0.023239 0.570231
0.131337 0.021280 0.572090
0.133299 0.019898 0.571758
0.132514 0.021644 0.573390
0.130569 0.022003 0.573367
0.133062 0.023414 0.573636
0.133408 0.022362 0.571020
0.134052 0.020897 0.570659
0.132561 0.022377 0.573038
0.134122 0.022275 0.573882
0.134811 0.022744 0.575308
0.133677 0.023052 0.573933
0.135331 0.022044 0.574277
0.134537 0.021682 0.575131
0.134617 0.022140 0.574674
0.133876 0.022981 0.575660
0.134675 0.022454 0.577706
0.133599 0.022877 0.577546
0.136158 0.022826 0.577382
0.137256 0.021531 0.577544
0.136897 0.023954 0.578427
0.137456 0.022191 0.577719
0.137507 0.021850 0.579088
0.138786 0.021142 0.578945
0.138673 0.022975 0.579391
0.137568 0.022134 0.579832
0.137500 0.020422 0.580404
0.139352 0.022644 0.581647
0.139551 0.022078 0.580468
0.138411 0.022042 0.581400
0.137972 0.021158 0.582479
0.137905 0.021208 0.584667
0.139162 0.023131 0.582496
0.139142 0.022073 0.583765
0.138946 0.023123 0.584379
0.141197 0.024896 0.585324
0.139989 0.021716 0.584489
0.140318 0.022779 0.584013
0.140290 0.023625 0.586640
0.142317 0.023029 0.586903
0.141434 0.023040 0.588126
0.140401 0.023112 0.586757
0.140535 0.022522 0.587859
0.141929 0.022801 0.588181
0.142299 0.021092 0.590781
0.140941 0.022257 0.590273
0.140800 0.022537 0.591169
0.141221 0.022197 0.589677
0.141694 0.023368 0.591616
0.141679 0.021784 0.592006
0.141450 0.024341 0.592476
0.140451 0.021476 0.593706
0.140691 0.022334 0.592613
0.142265 0.022236 0.594362
0.141003 0.022216 0.593338
0.142685 0.022551 0.595837
0.142481 0.022089 0.595911
0.143440 0.020048 0.595851
0.141807 0.022170 0.600095
0.143575 0.022621 0.595657
0.141844 0.023467 0.596853
0.140976 0.022404 0.598346
0.141625 0.022747 0.597753
0.141464 0.021899 0.598208
0.142491 0.022592 0.598990
0.141122 0.023064 0.599625
0.141844 0.022580 0.602079
0.142712 0.021127 0.600970
0.144035 0.024105 0.599413
0.142131 0.021482 0.601238
0.141380 0.022747 0.602862
0.140856 0.020320 0.602674
0.142941 0.021899 0.601977
0.141849 0.021212 0.603634
0.142032 0.021730 0.604946
0.141830 0.020850 0.604341
0.142907 0.022345 0.605841
0.142154 0.022338 0.606486
0.141560 0.022385 0.605305
0.141601 0.021913 0.605575
0.142548 0.023009 0.607898
0.141664 0.023346 0.607224
0.142529 0.021746 0.609895
0.142437 0.021786 0.607722
0.141759 0.021883 0.610374
0.141168 0.023248 0.612060
0.141113 0.021733 0.609220
0.141031 0.021124 0.611649
0.139990 0.022089 0.608747
0.141571 0.022580 0.611577
0.141131 0.023672 0.611004
0.141999 0.022464 0.612193
0.141074 0.021560 0.612392
0.137701 0.020668 0.614468
0.140052 0.023381 0.613870
0.140351 0.022157 0.612825
0.139055 0.021216 0.616056
0.140902 0.022930 0.616669
0.138816 0.021493 0.615505
0.138260 0.022506 0.615016
0.137052 0.023292 0.616680
0.138751 0.024344 0.616302
0.139498 0.022476 0.618862
0.136427 0.022732 0.618590
0.139071 0.023053 0.618429
0.138742 0.024835 0.618387
0.136991 0.023353 0.619117
0.136842 0.022687 0.618670
0.135067 0.023075 0.621827
0.137443 0.021086 0.619715
0.136034 0.022446 0.620586
0.136373 0.022476 0.621638
0.137241 0.022985 0.619988
0.134867 0.021647 0.622645
0.136084 0.022109 0.621277
0.134033 0.021463 0.622586
0.134059 0.020324 0.624574
0.134524 0.020233 0.623950
0.135816 0.023080 0.623482
0.133294 0.022477 0.624262
0.134264 0.022505 0.625576
0.134400 0.022329 0.622763
0.132715 0.022688 0.626305
0.135105 0.024442 0.626475
0.132597 0.022308 0.628396
0.133800 0.023051 0.628323
0.131670 0.022499 0.627958
0.131985 0.024195 0.629214
0.131624 0.021111 0.629222
0.129885 0.022895 0.628180
0.132423 0.022450 0.629774
0.130205 0.020373 0.630156
0.131002 0.022156 0.629891
0.131116 0.022190 0.630880
0.130107 0.021752 0.629823
0.128376 0.022049 0.631693
0.128496 0.022119 0.631543
0.128372 0.023753 0.633309
0.128786 0.022125 0.632099
0.128093 0.021994 0.633104
0.125486 0.020677 0.632855
0.125709 0.022040 0.634303
0.125704 0.021300 0.633280
0.125804 0.023319 0.633226
0.126146 0.022479 0.633897
0.124669 0.022899 0.633465
0.126259 0.020654 0.633573
0.123668 0.022505 0.635851
0.123424 0.022069 0.633132
0.123291 0.022392 0.636087
0.124371 0.022595 0.635557
0.123501 0.020769 0.635355
0.121581 0.019636 0.637371
0.119630 0.021399 0.636602
0.122328 0.022267 0.638071
0.120285 0.023667 0.638101
0.118809 0.025659 0.563156
0.120487 0.025671 0.563208
0.124520 0.026141 0.563398
0.121784 0.025286 0.564905
0.122925 0.026407 0.566793
0.122166 0.027247 0.564617
0.125023 0.027698 0.564585
0.124725 0.025145 0.565928
0.125303 0.025071 0.567745
0.126812 0.025215 0.566760
0.126272 0.025970 0.565532
0.126102 0.024624 0.566992
0.124924 0.025680 0.566068
0.127590 0.024791 0.566763
0.126775 0.025447 0.567307
0.128068 0.025744 0.566780
0.125725 0.026908 0.569751
0.128164 0.026202 0.567698
0.128873 0.025990 0.568108
0.127777 0.026946 0.566786
0.130999 0.025464 0.570166
0.130350 0.025877 0.570451
0.130195 0.024167 0.570407
0.131172 0.027252 0.569278
0.130926 0.025654 0.572472
0.131073 0.026428 0.571378
0.132159 0.023627 0.572429
0.132774 0.025087 0.571479
0.132671 0.025445 0.571644
0.132996 0.024973 0.573166
0.133349 0.024952 0.572251
0.133671 0.024732 0.574223
0.134418 0.024648 0.574612
0.134780 0.025450 0.574082
0.132473 0.025931 0.575555
0.133315 0.024384 0.574404
0.133079 0.026569 0.574529
0.132506 0.025218 0.575520
0.135303 0.024873 0.576439
0.134530 0.026925 0.576332
0.135485 0.024230 0.577101
0.136690 0.025759 0.576666
0.135062 0.026031 0.577171
0.135654 0.027029 0.578320
0.136197 0.026532 0.577608
0.136673 0.029006 0.577549
0.137935 0.026402 0.580591
0.135711 0.027413 0.580193
0.136824 0.026449 0.579112
0.137007 0.025093 0.579723
0.138199 0.026598 0.581137
0.138027 0.024702 0.580688
0.138229 0.027714 0.582289
0.138075 0.025431 0.581584
0.139432 0.027037 0.584644
0.141534 0.025880 0.583946
0.137870 0.025356 0.583682
0.139265 0.024824 0.584575
0.140430 0.025848 0.584623
0.139723 0.025001 0.584607
0.140524 0.024084 0.585290
0.138860 0.025527 0.586061
0.140594 0.025935 0.585890
0.141243 0.025979 0.587786
0.142002 0.025297 0.587905
0.139748 0.024841 0.587445
0.141535 0.025455 0.587846
0.141647 0.025532 0.588438
0.140813 0.024095 0.588820
0.142350 0.025018 0.589616
0.141577 0.026502 0.590122
0.143473 0.025676 0.589808
0.141949 0.026718 0.592808
0.141837 0.025239 0.592985
0.142171 0.027041 0.594315
0.140825 0.024534 0.591755
0.142959 0.026602 0.594318
0.142949 0.025770 0.594829
0.142820 0.026452 0.594819
0.140596 0.027280 0.595272
0.142304 0.026266 0.595228
0.141746 0.026694 0.595788
0.143324 0.024882 0.597572
0.142779 0.027099 0.596039
0.141905 0.025600 0.598471
0.143409 0.025508 0.599757
0.142342 0.026914 0.598868
0.142260 0.026626 0.598880
0.141581 0.026337 0.600180
0.141450 0.024922 0.599749
0.143359 0.026942 0.601342
0.141070 0.026803 0.600252
0.142074 0.024868 0.601094
0.142603 0.025826 0.600981
0.142239 0.024819 0.604215
0.141021 0.026531 0.603195
0.142458 0.027506 0.603034
0.141700 0.028411 0.604467
0.143126 0.025751 0.605053
0.141576 0.026062 0.605664
0.142798 0.024940 0.604868
0.141119 0.025215 0.606870
0.143074 0.026849 0.605223
0.142070 0.025578 0.607141
0.142861 0.025202 0.606676
0.143392 0.026454 0.606455
0.142288 0.025862 0.610699
0.142754 0.025852 0.607847
0.140694 0.024971 0.608617
0.141054 0.024386 0.608703
0.141501 0.025093 0.609843
0.139403 0.028035 0.609753
0.140408 0.025850 0.610410
0.142181 0.026121 0.611383
0.141057 0.025683 0.611984
0.141846 0.026665 0.613558
0.140009 0.028062 0.614090
0.141089 0.027450 0.614313
0.139412 0.026508 0.614526
0.140379 0.025971 0.613911
0.141553 0.024726 0.614123
0.140992 0.025442 0.615119
0.137684 0.027277 0.614963
0.138350 0.025760 0.616244
0.138503 0.025392 0.616713
0.139242 0.025158 0.617379
0.139547 0.025668 0.616328
0.138266 0.025114 0.618571
0.138606 0.027411 0.618268
0.138011 0.026037 0.618375
0.137183 0.027475 0.617999
0.137167 0.025316 0.620296
0.137517 0.025418 0.621687
0.135615 0.024878 0.621294
0.137821 0.025556 0.622269
0.136997 0.026852 0.620135
0.135351 0.023907 0.620799
0.136816 0.025495 0.622202
0.135495 0.025532 0.624537
0.135989 0.024645 0.623371
0.136661 0.025715 0.622998
0.134365 0.026059 0.624131
0.134725 0.026205 0.623166
0.133630 0.025916 0.625441
0.133865 0.025603 0.625537
0.133134 0.026060 0.625001
0.132672 0.025825 0.626301
0.132803 0.024091 0.625947
0.133077 0.023704 0.624908
0.133110 0.026600 0.627432
0.133184 0.025532 0.626831
0.131907 0.026501 0.629242
0.133230 0.026013 0.627725
0.132875 0.025543 0.629761
0.131736 0.027263 0.628836
0.131433 0.026203 0.630342
0.133229 0.026638 0.630896
0.130196 0.025982 0.630961
0.127945 0.025355 0.630207
0.129298 0.025507 0.629504
0.126994 0.024497 0.629881
0.127937 0.027460 0.631877
0.128623 0.025321 0.631908
0.128496 0.024613 0.630747
0.127800 0.025927 0.632375
0.125831 0.026638 0.632716
0.126860 0.024917 0.633410
0.127715 0.025249 0.633812
0.125541 0.025968 0.635099
0.126664 0.025924 0.634089
0.124130 0.024916 0.634285
0.125866 0.025484 0.633785
0.122479 0.026058 0.637063
0.123664 0.025365 0.636361
0.123740 0.025798 0.634658
0.122643 0.024734 0.636387
0.121906 0.025623 0.636688
0.121839 0.024922 0.636450
0.121489 0.025141 0.638396
0.122583 0.026794 0.636356
0.123112 0.029136 0.563099
0.122798 0.028361 0.563278
0.122479 0.027685 0.564313
0.122710 0.028830 0.564103
0.123036 0.027614 0.564998
0.123031 0.030465 0.566098
0.122573 0.028358 0.564203
0.124577 0.027900 0.563813
0.125781 0.029578 0.563995
0.125408 0.029070 0.565833
0.125626 0.028960 0.567282
0.125093 0.028713 0.564837
0.126540 0.028541 0.566657
0.126658 0.029342 0.565105
0.125994 0.028156 0.567486
0.127526 0.029282 0.568545
0.128066 0.027094 0.567123
0.126344 0.027996 0.569915
0.129935 0.029323 0.569495
0.127382 0.028685 0.570191
0.127781 0.028123 0.569049
0.129641 0.029024 0.570802
0.131601 0.028106 0.569857
0.131053 0.029949 0.567029
0.129847 0.029234 0.570202
0.129889 0.028417 0.570422
0.131205 0.027778 0.571660
0.132200 0.029434 0.570003
0.132531 0.028343 0.570935
0.132348 0.029062 0.572431
0.131500 0.030356 0.573603
0.130445 0.028559 0.572261
0.134080 0.027433 0.573740
0.134126 0.027980 0.574251
0.134041 0.027741 0.574144
0.132168 0.029655 0.575104
0.134736 0.028258 0.574881
0.134580 0.029497 0.576313
0.134780 0.029192 0.575521
0.135856 0.029034 0.575978
0.135903 0.028162 0.577093
0.135413 0.028791 0.578087
0.136606 0.028637 0.578011
0.136962 0.027351 0.577493
0.137206 0.029891 0.578970
0.137516 0.029840 0.578282
0.135606 0.030523 0.576811
0.139325 0.028374 0.580570
0.138483 0.030974 0.578844
0.137327 0.029289 0.580528
0.139432 0.029007 0.581192
0.139028 0.028135 0.580836
0.138193 0.030380 0.581489
0.139077 0.029144 0.581173
0.139439 0.028418 0.581826
0.141122 0.029329 0.582919
0.139092 0.030213 0.583219
0.138010 0.027978 0.583591
0.140406 0.030329 0.583927
0.142497 0.030597 0.584777
0.139837 0.029861 0.585893
0.139542 0.029155 0.586098
0.141009 0.028567 0.587434
0.140827 0.028337 0.589163
0.143392 0.028644 0.588185
0.140691 0.027805 0.587185
0.142743 0.028367 0.589415
0.141848 0.029166 0.586505
0.141115 0.030208 0.590417
0.141269 0.029481 0.589942
0.141452 0.029910 0.590792
0.141330 0.028473 0.593161
0.141525 0.029060 0.591566
0.145357 0.030701 0.591946
0.141542 0.026536 0.590925
0.142230 0.031724 0.592797
0.142518 0.029779 0.592867
0.142361 0.029031 0.594355
0.142326 0.030447 0.594076
0.141844 0.028755 0.594026
0.141757 0.028950 0.595299
0.140847 0.030038 0.596435
0.140033 0.028949 0.597130
0.141489 0.029361 0.596167
0.140834 0.028687 0.597964
0.140196 0.029950 0.599317
0.142476 0.029606 0.599765
0.142740 0.028370 0.600312
0.142401 0.028168 0.599458
0.143242 0.030266 0.599708
0.143862 0.028516 0.598046
0.142240 0.028993 0.601125
0.140776 0.029661 0.601441
0.143112 0.027530 0.602371
0.141815 0.029787 0.602927
0.141994 0.029413 0.602588
0.142886 0.028784 0.602825
0.140842 0.029097 0.603467
0.141374 0.028564 0.603853
0.140899 0.030155 0.605526
0.140505 0.028170 0.604077
0.142250 0.027648 0.602541
0.140586 0.028442 0.606729
0.140984 0.028613 0.608359
0.143109 0.028130 0.605697
0.141599 0.028110 0.607539
0.141203 0.029547 0.610072
0.141838 0.027741 0.608105
0.140815 0.028938 0.608647
0.141295 0.029741 0.609664
0.139732 0.027027 0.609659
0.140239 0.029314 0.611333
0.140367 0.029653 0.611149
0.140977 0.030211 0.610405
0.140483 0.028491 0.613612
0.140038 0.029704 0.614069
0.142202 0.029464 0.612280
0.141214 0.027789 0.613218
0.140215 0.029515 0.612458
0.140622 0.028725 0.617291
0.139703 0.029710 0.615112
0.139825 0.029091 0.615479
0.139718 0.028966 0.614060
0.140747 0.028412 0.616709
0.138365 0.029307 0.615784
0.138019 0.030111 0.616196
0.138740 0.028490 0.618147
0.138565 0.028254 0.618152
0.139364 0.029974 0.618447
0.138144 0.031654 0.619331
0.138017 0.030408 0.620704
0.138374 0.030614 0.619638
0.135544 0.029959 0.620932
0.136625 0.028533 0.619947
0.136874 0.030636 0.621077
0.135664 0.030112 0.622599
0.134654 0.029216 0.620461
0.135252 0.028450 0.624193
0.135828 0.029863 0.621640
0.137077 0.030376 0.622964
0.135671 0.028689 0.623147
0.134947 0.029403 0.624593
0.134489 0.030569 0.625057
0.133804 0.028954 0.624528
0.134790 0.028666 0.625027
0.135125 0.030048 0.625726
0.132715 0.029618 0.625921
0.131256 0.028908 0.628958
0.131887 0.029722 0.626827
0.131458 0.029441 0.628364
0.130220 0.027231 0.629005
0.132362 0.028842 0.629071
0.132100 0.028482 0.627902
0.130036 0.028541 0.629078
0.132217 0.028757 0.629310
0.132079 0.028585 0.629531
0.128691 0.028763 0.628590
0.129579 0.029182 0.629675
0.128337 0.029138 0.631070
0.131674 0.030144 0.629109
0.126724 0.028801 0.630941
0.129777 0.028249 0.631871
0.127035 0.027129 0.633388
0.127293 0.029421 0.633319
0.126327 0.031135 0.634622
0.127719 0.030185 0.633065
0.126365 0.028523 0.633435
0.127996 0.030380 0.633906
0.126051 0.028978 0.633190
0.125846 0.027485 0.633916
0.125917 0.027715 0.634248
0.124091 0.028455 0.634912
0.123799 0.029380 0.636054
0.122782 0.029291 0.635396
0.123086 0.028468 0.636592
0.121187 0.027903 0.635283
0.122616 0.029032 0.636751
0.123008 0.029588 0.636692
0.119896 0.029930 0.634512
0.120793 0.029312 0.639053
0.122290 0.031927 0.562312
0.121350 0.031666 0.562446
0.121955 0.032368 0.564665
0.123805 0.032486 0.564952
0.121000 0.033805 0.562396
0.124373 0.033031 0.561492
0.123751 0.035003 0.565718
0.123009 0.032671 0.563299
0.123512 0.030681 0.565169
0.125133 0.031211 0.565751
0.125113 0.033336 0.565420
0.124194 0.032657 0.565185
0.124860 0.031352 0.569009
0.126006 0.031647 0.566589
0.127606 0.032938 0.568693
0.127739 0.032577 0.568068
0.126797 0.031935 0.569770
0.127508 0.032751 0.566710
0.129055 0.030777 0.568581
0.129485 0.033118 0.569580
0.129464 0.033085 0.569558
0.128910 0.033318 0.568687
0.130019 0.031607 0.570544
0.130640 0.031575 0.569674
0.129044 0.032209 0.570372
0.132259 0.031723 0.570916
0.132543 0.031734 0.569745
0.132920 0.032713 0.570945
0.132207 0.032102 0.573012
0.133434 0.031944 0.571126
0.132317 0.032291 0.573841
0.130971 0.033875 0.571961
0.133284 0.030866 0.573944
0.133675 0.032874 0.572588
0.132956 0.032048 0.575076
0.135121 0.033525 0.573545
0.134571 0.031858 0.574505
0.135499 0.033146 0.573832
0.136707 0.033822 0.576796
0.135156 0.032101 0.576835
0.135111 0.031675 0.576951
0.136463 0.033808 0.576234
0.135076 0.033386 0.578211
0.135735 0.032978 0.579044
0.136531 0.033477 0.579083
0.138001 0.033264 0.579711
0.137110 0.031447 0.579286
0.137657 0.031977 0.581522
0.137702 0.031171 0.580752
0.136511 0.032005 0.579517
0.137697 0.032432 0.581471
0.136600 0.034242 0.582658
0.138277 0.032914 0.582039
0.139577 0.031112 0.580597
0.138992 0.030743 0.583734
0.138038 0.033913 0.583228
0.139354 0.032976 0.583636
0.138298 0.032425 0.584873
0.139449 0.032569 0.585810
0.139908 0.032509 0.585964
0.140318 0.032990 0.585894
0.140421 0.032329 0.586215
0.140790 0.031539 0.586944
0.141816 0.032114 0.587411
0.140993 0.032810 0.588700
0.141256 0.033338 0.586027
0.140638 0.030884 0.589278
0.139697 0.032359 0.589625
0.141497 0.033082 0.588464
0.140817 0.032413 0.588888
0.142542 0.031447 0.591421
0.141684 0.033082 0.590146
0.141756 0.033544 0.592145
0.140836 0.032748 0.591226
0.142287 0.032972 0.589463
0.141391 0.033058 0.593637
0.142526 0.033551 0.593193
0.142887 0.032926 0.593696
0.141222 0.032624 0.594135
0.142100 0.032636 0.594305
0.140605 0.032430 0.596016
0.142987 0.033113 0.595943
0.141592 0.032787 0.595510
0.142259 0.031803 0.596510
0.142788 0.032718 0.598629
0.143579 0.031145 0.598282
0.141372 0.032940 0.597964
0.142377 0.032641 0.598626
0.141199 0.031412 0.599006
0.141373 0.031628 0.599609
0.142077 0.031154 0.600664
0.142719 0.033361 0.600546
0.142132 0.031178 0.601856
0.143143 0.031354 0.600714
0.142013 0.033291 0.601885
0.142293 0.032266 0.602854
0.144405 0.032039 0.604260
0.141791 0.030978 0.604585
0.140730 0.031768 0.604189
0.143077 0.034168 0.605317
0.141947 0.033646 0.606294
0.141395 0.032513 0.607109
0.140560 0.030908 0.606187
0.140785 0.032265 0.606927
0.141335 0.032413 0.607068
0.140174 0.033184 0.608348
0.142540 0.033152 0.608053
0.143006 0.033470 0.608291
0.142787 0.032460 0.611465
0.142246 0.031572 0.608173
0.142649 0.031316 0.608767
0.141314 0.029739 0.609419
0.141161 0.033846 0.608386
0.140962 0.031821 0.611194
0.141963 0.032247 0.612282
0.140762 0.033009 0.612215
0.143396 0.032108 0.611807
0.140572 0.033103 0.612461
0.141204 0.032812 0.615112
0.138670 0.033066 0.614365
0.139090 0.030544 0.614358
0.139404 0.032109 0.615807
0.138286 0.031963 0.615501
0.139637 0.032661 0.617287
0.138987 0.031938 0.616200
0.136846 0.032483 0.617681
0.138527 0.032389 0.618602
0.139808 0.033510 0.616872
0.140232 0.033524 0.618183
0.138089 0.032464 0.618406
0.137678 0.031388 0.618682
0.138445 0.031419 0.617480
0.137587 0.032562 0.621069
0.137654 0.031014 0.621297
0.137881 0.031225 0.621382
0.135809 0.032844 0.619808
0.136832 0.032880 0.621477
0.136093 0.030916 0.622482
0.135140 0.031723 0.622004
0.133501 0.032756 0.623860
0.136197 0.032673 0.624201
0.134425 0.032353 0.624116
0.135418 0.032883 0.624797
0.135253 0.033703 0.625504
0.133809 0.033101 0.626182
0.132049 0.031494 0.626238
0.133373 0.033066 0.626705
0.133706 0.032537 0.625879
0.132963 0.030932 0.626230
0.132756 0.033148 0.627831
0.133098 0.031199 0.629082
0.133194 0.033606 0.628714
0.131233 0.032345 0.629537
0.131408 0.033221 0.627643
0.131571 0.031937 0.628798
0.130615 0.033905 0.630759
0.129339 0.032247 0.630170
0.129133 0.035403 0.630138
0.128484 0.034771 0.630814
0.130159 0.032035 0.633399
0.126158 0.032048 0.629813
0.126611 0.033277 0.630683
0.129807 0.034228 0.632379
0.126751 0.032467 0.631666
0.127762 0.031345 0.633472
0.126371 0.031309 0.632797
0.127348 0.031356 0.633476
0.125035 0.032217 0.634933
0.126036 0.031886 0.634280
0.125093 0.032672 0.636032
0.125481 0.031032 0.634637
0.124533 0.032016 0.634626
0.124077 0.031939 0.635152
0.123111 0.031234 0.633072
0.122734 0.032352 0.635545
0.123231 0.033194 0.633196
0.122417 0.033575 0.638623
0.120179 0.033080 0.636424
0.118887 0.031921 0.637224
0.120961 0.031909 0.637290
0.123267 0.036544 0.562394
0.122916 0.036110 0.563772
0.120192 0.036386 0.563807
0.122258 0.035463 0.564561
0.122069 0.034370 0.563489
0.123318 0.036266 0.563169
0.122790 0.035484 0.564708
0.125369 0.036437 0.563451
0.123945 0.036291 0.562705
0.125483 0.037703 0.566503
0.125521 0.036176 0.564876
0.124972 0.035788 0.566318
0.125146 0.037080 0.565670
0.126916 0.035619 0.567618
0.124644 0.036479 0.567175
0.127517 0.034607 0.569289
0.126590 0.034903 0.570142
0.126544 0.035178 0.567393
0.127831 0.035548 0.567202
0.129440 0.037528 0.567781
0.127083 0.034975 0.569226
0.128974 0.034168 0.569250
0.129206 0.035603 0.570793
0.131417 0.034080 0.569696
0.129754 0.036114 0.568848
0.130886 0.036089 0.571692
0.131532 0.036582 0.571950
0.131464 0.035573 0.570988
0.132652 0.035144 0.572697
0.132280 0.034827 0.573798
0.133819 0.037399 0.570372
0.133313 0.036283 0.574055
0.132911 0.035306 0.575408
0.132386 0.035914 0.573649
0.133689 0.036544 0.575054
0.134311 0.035881 0.574862
0.133363 0.034312 0.573878
0.134549 0.035534 0.574811
0.137032 0.035490 0.576359
0.134987 0.034938 0.576858
0.133683 0.035913 0.577879
0.136936 0.035083 0.575576
0.136335 0.036525 0.578439
0.135487 0.036493 0.576566
0.136761 0.035686 0.577846
0.135136 0.036812 0.578203
0.137891 0.035810 0.578427
0.137645 0.036817 0.579402
0.138534 0.036101 0.579620
0.138328 0.036640 0.580899
0.139302 0.035369 0.581035
0.138230 0.036272 0.582397
0.139477 0.035374 0.583747
0.138082 0.034139 0.582209
0.138447 0.037064 0.584246
0.138906 0.036385 0.584728
0.139798 0.034433 0.583628
0.139936 0.037058 0.584979
0.141688 0.034357 0.584196
0.139768 0.034987 0.583427
0.140336 0.036995 0.584747
0.139781 0.035706 0.586514
0.142785 0.036323 0.587953
0.141341 0.034407 0.586064
0.142359 0.034803 0.586875
0.140071 0.035723 0.586126
0.140978 0.034891 0.588581
0.140238 0.035914 0.590213
0.141136 0.034791 0.590046
0.140987 0.034513 0.589431
0.142204 0.036859 0.589471
0.142858 0.034705 0.591839
0.141548 0.034884 0.590711
0.142787 0.034978 0.592512
0.141882 0.035727 0.591343
0.141468 0.035952 0.592224
0.142040 0.036149 0.593887
0.142436 0.038055 0.594481
0.144889 0.036864 0.596674
0.141728 0.036002 0.594898
0.143479 0.037770 0.595068
0.141523 0.036028 0.595352
0.141957 0.036302 0.596495
0.143104 0.037401 0.595847
0.141548 0.036587 0.597936
0.141666 0.035352 0.597069
0.142251 0.036820 0.595786
0.143785 0.035368 0.598249
0.140600 0.036537 0.596995
0.142218 0.035849 0.599439
0.142842 0.035482 0.599852
0.141677 0.036055 0.601595
0.143393 0.035962 0.602488
0.141957 0.036729 0.599978
0.143939 0.037031 0.602322
0.143081 0.036322 0.602337
0.140407 0.037720 0.602971
0.140943 0.035701 0.603501
0.142835 0.033753 0.602869
0.141410 0.036131 0.604647
0.140545 0.036081 0.604755
0.141869 0.035765 0.607170
0.143121 0.035512 0.605646
0.142195 0.035008 0.606272
0.142203 0.034689 0.609354
0.142203 0.036923 0.605526
0.141321 0.034986 0.608129
0.140736 0.035970 0.609119
0.143250 0.035804 0.609073
0.140416 0.035768 0.610637
0.141200 0.034747 0.609877
0.140715 0.035085 0.608434
0.140294 0.034076 0.612560
0.141816 0.035800 0.609026
0.141226 0.035788 0.612244
0.140657 0.038151 0.612860
0.139781 0.035281 0.613649
0.140368 0.036899 0.612874
0.139328 0.035091 0.614719
0.141115 0.036743 0.614170
0.140762 0.036354 0.613706
0.140480 0.038097 0.615105
0.138159 0.035825 0.614604
0.138976 0.034462 0.615941
0.138858 0.035571 0.616706
0.138775 0.036426 0.618757
0.137841 0.035610 0.617852
0.138506 0.034857 0.617018
0.139654 0.035571 0.618895
0.138137 0.036944 0.619736
0.136572 0.036111 0.618814
0.138952 0.037026 0.620331
0.138290 0.034420 0.620757
0.135223 0.037745 0.620501
0.137671 0.036985 0.620660
0.136816 0.034917 0.621286
0.135363 0.035867 0.623102
0.135889 0.035040 0.621272
0.134219 0.036273 0.622453
0.134976 0.035863 0.622564
0.134955 0.036280 0.622014
0.137300 0.035563 0.622114
0.135347 0.037756 0.624474
0.134019 0.035247 0.624968
0.135979 0.036826 0.625057
0.133776 0.037259 0.624360
0.133354 0.035119 0.625926
0.132982 0.035927 0.625818
0.131666 0.034163 0.628206
0.132724 0.036023 0.628702
0.132451 0.037500 0.628702
0.134164 0.034793 0.630179
0.131573 0.034855 0.629773
0.132803 0.035937 0.629417
0.130154 0.034940 0.628725
0.130910 0.033821 0.630964
0.129741 0.036005 0.630361
0.130562 0.035268 0.630601
0.129707 0.035873 0.630298
0.130514 0.036131 0.631649
0.129305 0.035462 0.628331
0.127108 0.037120 0.630939
0.130531 0.035164 0.632177
0.127622 0.037226 0.632132
0.127183 0.034531 0.633843
0.126206 0.036740 0.634519
0.126761 0.034950 0.632890
0.125089 0.035119 0.633848
0.128155 0.036352 0.632660
0.126143 0.035796 0.633615
0.124882 0.034956 0.635145
0.124516 0.034667 0.636797
0.124121 0.035936 0.636926
0.123708 0.035711 0.635845
0.123228 0.036474 0.634597
0.121900 0.034419 0.635267
0.121940 0.036517 0.636027
0.121950 0.035169 0.636451
0.121251 0.033624 0.637564
0.119491 0.037658 0.636593
0.122616 0.040378 0.563315
0.120236 0.037712 0.563827
0.120804 0.039906 0.562774
0.122507 0.039916 0.563349
