# .PCD v0.7
VERSION 0.7
FIELDS x y z
SIZE 4 4 4
TYPE F F F
COUNT 1 1 1
WIDTH 1709
HEIGHT 1
VIEWPOINT 0 0 0 1 0 0 0
POINTS 1709
DATA ascii
0.135270 -0.084312 0.624747
0.134334 -0.085203 0.626268
0.131592 -0.086379 0.627893
0.131187 -0.086464 0.629356
0.132541 -0.084445 0.627616
0.129554 -0.084605 0.631436
0.127915 -0.086002 0.631346
0.128140 -0.084024 0.632512
0.125288 -0.085787 0.636106
0.124955 -0.084597 0.634734
0.123280 -0.085221 0.633503
0.121197 -0.085593 0.633867
0.121020 -0.085707 0.637685
0.120564 -0.084292 0.640058
0.119893 -0.083522 0.638185
0.116381 -0.085204 0.638334
0.117543 -0.087653 0.640076
0.113992 -0.084417 0.639370
0.113876 -0.084654 0.639025
0.110372 -0.086365 0.639387
0.110129 -0.084587 0.641462
0.108877 -0.085689 0.642460
0.106781 -0.084376 0.641910
0.105270 -0.083775 0.642070
0.104015 -0.085370 0.642453
0.102524 -0.084246 0.642941
0.102879 -0.086391 0.642476
0.099144 -0.083946 0.641853
0.098913 -0.085217 0.641870
0.096310 -0.083823 0.641858
0.094887 -0.085361 0.642983
0.093255 -0.086773 0.640987
0.092394 -0.085053 0.641425
0.091805 -0.084091 0.643337
0.090188 -0.087520 0.641417
0.089390 -0.084542 0.640477
0.087012 -0.085621 0.639932
0.085922 -0.085449 0.638660
0.083925 -0.086404 0.638829
0.082600 -0.084749 0.638958
0.081263 -0.085956 0.638138
0.080395 -0.084746 0.634588
0.077908 -0.083254 0.636968
0.077250 -0.084099 0.636475
0.075309 -0.084702 0.634202
0.076183 -0.085680 0.634132
0.074333 -0.083889 0.633200
0.073569 -0.084628 0.632669
0.071663 -0.084225 0.631380
0.071495 -0.084132 0.630758
0.070354 -0.085509 0.630038
0.069127 -0.085823 0.626234
0.067798 -0.086004 0.627495
0.066707 -0.085625 0.627834
0.063778 -0.085238 0.625564
0.064414 -0.084412 0.624420
0.063370 -0.084708 0.621769
0.063376 -0.084991 0.621405
0.060688 -0.086889 0.619844
0.062273 -0.086331 0.619150
0.060445 -0.085825 0.617646
0.060519 -0.086574 0.617366
0.060120 -0.085771 0.615361
0.060959 -0.085409 0.611847
0.059964 -0.085289 0.611273
0.059713 -0.087656 0.608621
0.057264 -0.084960 0.605501
0.057355 -0.085523 0.606337
0.057917 -0.085637 0.605337
0.056651 -0.085725 0.604828
0.059672 -0.085311 0.604644
0.055515 -0.084589 0.602989
0.057478 -0.081651 0.598801
0.057571 -0.082427 0.600131
0.060351 -0.082776 0.595991
0.058452 -0.081950 0.596170
0.059275 -0.083484 0.594628
0.059040 -0.080744 0.591729
0.057004 -0.081899 0.591526
0.058446 -0.083589 0.588595
0.061683 -0.080966 0.586663
0.058081 -0.081914 0.587731
0.059811 -0.080971 0.587157
0.061371 -0.081825 0.582522
0.060916 -0.082920 0.582215
0.061489 -0.079814 0.581036
0.062592 -0.083010 0.580858
0.063737 -0.083471 0.579167
0.064524 -0.082978 0.578243
0.064909 -0.082059 0.576950
0.064958 -0.081706 0.574065
0.065818 -0.081824 0.573926
0.066660 -0.081675 0.572635
0.067529 -0.080588 0.572188
0.068346 -0.081720 0.568121
0.069288 -0.082908 0.570165
0.073572 -0.080941 0.568223
0.073008 -0.082590 0.566737
0.073741 -0.080585 0.565294
0.073165 -0.080983 0.564742
0.076224 -0.081208 0.563892
0.077196 -0.084407 0.564976
0.078348 -0.082864 0.561494
0.079041 -0.083209 0.563704
0.081388 -0.082297 0.559487
0.082578 -0.080656 0.560886
0.085075 -0.080682 0.558386
0.084904 -0.081234 0.561477
0.087115 -0.079513 0.557583
0.087833 -0.081202 0.557952
0.091079 -0.082493 0.557676
0.090449 -0.080098 0.556906
0.092900 -0.080338 0.559461
0.093262 -0.082356 0.558061
0.096235 -0.080829 0.556631
0.095338 -0.080741 0.557865
0.098731 -0.079624 0.556614
0.099378 -0.081309 0.557182
0.101943 -0.081191 0.555995
0.102843 -0.082095 0.558714
0.104112 -0.081036 0.558986
0.106633 -0.083366 0.558923
0.107096 -0.081793 0.556254
0.109671 -0.082438 0.558016
0.110764 -0.082757 0.558894
0.110287 -0.080764 0.559512
0.113379 -0.080373 0.561187
0.113172 -0.080248 0.559424
0.117428 -0.081365 0.560264
0.117881 -0.083232 0.561385
0.120301 -0.081523 0.563072
0.120323 -0.082118 0.562795
0.122435 -0.081611 0.562327
0.122131 -0.080447 0.562815
0.124524 -0.080397 0.564289
0.126021 -0.081327 0.565269
0.125205 -0.082467 0.565441
0.128725 -0.078480 0.566399
0.129037 -0.080519 0.565371
0.130308 -0.081271 0.568087
0.130702 -0.081716 0.571770
0.132026 -0.082305 0.572251
0.131492 -0.083752 0.570857
0.133281 -0.083104 0.571732
0.134126 -0.082353 0.575856
0.136136 -0.082133 0.575697
0.136968 -0.083057 0.578313
0.135058 -0.081217 0.580412
0.137368 -0.082218 0.579938
0.136724 -0.081425 0.580644
0.139346 -0.082082 0.581745
0.139096 -0.082216 0.583962
0.139925 -0.081878 0.584966
0.140086 -0.084059 0.586973
0.141182 -0.080996 0.588651
0.141596 -0.082502 0.590377
0.142441 -0.082299 0.590627
0.142829 -0.084119 0.592296
0.141494 -0.084162 0.592471
0.143805 -0.082228 0.595941
0.142571 -0.080119 0.597452
0.142051 -0.081616 0.598192
0.141663 -0.082857 0.602242
0.141426 -0.081263 0.600808
0.141574 -0.083230 0.602364
0.140257 -0.082631 0.604984
0.143723 -0.080959 0.608753
0.141919 -0.082357 0.606925
0.141581 -0.084225 0.608848
0.140835 -0.081170 0.611401
0.140443 -0.081765 0.612890
0.139064 -0.081955 0.612632
0.140261 -0.082298 0.615373
0.140448 -0.082185 0.616622
0.137613 -0.080136 0.617804
0.139110 -0.080913 0.618760
0.136497 -0.080365 0.619578
0.136389 -0.081155 0.622421
0.136935 -0.080430 0.623474
0.135743 -0.081301 0.622036
0.134657 -0.080830 0.624593
0.132654 -0.082196 0.627654
0.130205 -0.081241 0.627836
0.130737 -0.082460 0.628029
0.130624 -0.080842 0.630519
0.128087 -0.081591 0.630943
0.128537 -0.081231 0.630262
0.126046 -0.081570 0.634103
0.124372 -0.082688 0.633009
0.122649 -0.082193 0.635079
0.125647 -0.080901 0.636642
0.122886 -0.083327 0.635607
0.122323 -0.082623 0.638392
0.120640 -0.082478 0.637591
0.119111 -0.082268 0.638102
0.116411 -0.083919 0.638356
0.116836 -0.079762 0.638294
0.115377 -0.082795 0.639554
0.114565 -0.081579 0.640515
0.110764 -0.082540 0.640682
0.109240 -0.081180 0.639562
0.108978 -0.084242 0.641503
0.106919 -0.081933 0.641437
0.106234 -0.082127 0.640419
0.105129 -0.081548 0.643611
0.103320 -0.081843 0.640621
0.099894 -0.079261 0.641598
0.101206 -0.082461 0.641893
0.099916 -0.082164 0.641564
0.097224 -0.080655 0.641734
0.094939 -0.082995 0.642123
0.096312 -0.081532 0.641192
0.092587 -0.081888 0.641878
0.091060 -0.082516 0.640735
0.091105 -0.082433 0.642477
0.090613 -0.083231 0.639805
0.087589 -0.082654 0.640015
0.085882 -0.081493 0.640733
0.082419 -0.083078 0.640315
0.084600 -0.081300 0.636956
0.083006 -0.082599 0.638256
0.077487 -0.082935 0.635643
0.078608 -0.080876 0.637449
0.077349 -0.083248 0.636333
0.075294 -0.083139 0.635603
0.074793 -0.081621 0.634018
0.074764 -0.081272 0.633101
0.072878 -0.080468 0.634506
0.073103 -0.081328 0.632532
0.070856 -0.084336 0.630809
0.068500 -0.081842 0.631289
0.068141 -0.082091 0.628228
0.065800 -0.082281 0.627215
0.065833 -0.081960 0.625203
0.066533 -0.080829 0.624751
0.063324 -0.080742 0.624546
0.064047 -0.082144 0.622937
0.063143 -0.082036 0.621325
0.062932 -0.081166 0.621372
0.064309 -0.080824 0.618347
0.060115 -0.081281 0.615845
0.061227 -0.080894 0.615949
0.060225 -0.081804 0.614951
0.059204 -0.080675 0.612293
0.059135 -0.080059 0.612324
0.059283 -0.081287 0.610908
0.058151 -0.084111 0.610354
0.058745 -0.082076 0.607200
0.056472 -0.080193 0.605940
0.060421 -0.083967 0.602261
0.057988 -0.080867 0.602722
0.056005 -0.081786 0.600831
0.057464 -0.079548 0.600303
0.058020 -0.079293 0.599079
0.058569 -0.079888 0.596121
0.058328 -0.077538 0.596090
0.058086 -0.076602 0.593859
0.058535 -0.076720 0.594286
0.058704 -0.076813 0.592361
0.058453 -0.077656 0.588500
0.059761 -0.080183 0.588163
0.059600 -0.079188 0.586174
0.060679 -0.077634 0.584914
0.061701 -0.076602 0.583848
0.061109 -0.077962 0.584479
0.061913 -0.078496 0.580921
0.063041 -0.078153 0.579436
0.061961 -0.077786 0.578327
0.064218 -0.078005 0.577562
0.065868 -0.078770 0.575981
0.065576 -0.078252 0.574824
0.065394 -0.079800 0.571568
0.065903 -0.078874 0.572405
0.067974 -0.078035 0.570632
0.069131 -0.078981 0.571018
0.068754 -0.077096 0.569076
0.069940 -0.078085 0.569766
0.072272 -0.077633 0.569171
0.072834 -0.080325 0.566466
0.075346 -0.078269 0.566237
0.079368 -0.077659 0.565531
0.078317 -0.079736 0.564226
0.077648 -0.079751 0.563151
0.079021 -0.077526 0.563955
0.082611 -0.079053 0.561847
0.082399 -0.079666 0.561731
0.083949 -0.078510 0.560095
0.085440 -0.080281 0.560362
0.086898 -0.078810 0.559266
0.086255 -0.078992 0.558296
0.090354 -0.076839 0.560067
0.091009 -0.078350 0.558345
0.092529 -0.077324 0.557325
0.092768 -0.078045 0.557245
0.095185 -0.077556 0.556875
0.098009 -0.077543 0.556409
0.098645 -0.078012 0.556901
0.099734 -0.079721 0.557553
0.102102 -0.078300 0.560743
0.102517 -0.077919 0.557952
0.105133 -0.078976 0.556431
0.107463 -0.079843 0.559138
0.106085 -0.078952 0.556733
0.109409 -0.077956 0.559275
0.112156 -0.077708 0.558505
0.111492 -0.078893 0.559106
0.114028 -0.077809 0.561595
0.116931 -0.078713 0.561240
0.116287 -0.077523 0.559480
0.115714 -0.077969 0.559720
0.117978 -0.077960 0.563712
0.122026 -0.076924 0.564857
0.120275 -0.079432 0.564455
0.121647 -0.077586 0.562247
0.122686 -0.078538 0.565490
0.126623 -0.080579 0.565733
0.127374 -0.079207 0.565008
0.126979 -0.077099 0.566915
0.129186 -0.077877 0.568659
0.128576 -0.079180 0.568302
0.128996 -0.078219 0.569750
0.131139 -0.078881 0.570002
0.132058 -0.080021 0.572397
0.133335 -0.077699 0.572711
0.134008 -0.079918 0.574307
0.134137 -0.078015 0.578886
0.136699 -0.078797 0.578089
0.137145 -0.078301 0.577729
0.136144 -0.077070 0.579958
0.138953 -0.079187 0.580912
0.138668 -0.080270 0.582278
0.139341 -0.077343 0.583446
0.140348 -0.076350 0.584716
0.139941 -0.079182 0.585201
0.139903 -0.081195 0.588765
0.141954 -0.078534 0.589829
0.142315 -0.076656 0.591617
0.141203 -0.079152 0.594170
0.140920 -0.080809 0.596776
0.143353 -0.080357 0.594341
0.142377 -0.079230 0.597328
0.139874 -0.078417 0.598670
0.142409 -0.077326 0.600735
0.144452 -0.077448 0.602639
0.141768 -0.078376 0.601496
0.140778 -0.078158 0.604603
0.142961 -0.078509 0.605359
0.141444 -0.078684 0.606569
0.140490 -0.080346 0.608383
0.143488 -0.078830 0.610646
0.139543 -0.078223 0.610236
0.140372 -0.078246 0.609654
0.141701 -0.080263 0.614381
0.138762 -0.078095 0.617101
0.137650 -0.077746 0.614809
0.139495 -0.079659 0.618685
0.138474 -0.078437 0.620959
0.136298 -0.078496 0.620843
0.135970 -0.076546 0.621937
0.133843 -0.077252 0.623967
0.134025 -0.080023 0.623432
0.134402 -0.079650 0.625934
0.133959 -0.078968 0.627786
0.132134 -0.078336 0.627975
0.129566 -0.077768 0.629159
0.130416 -0.078796 0.629650
0.128609 -0.078129 0.630902
0.125765 -0.079662 0.631362
0.126282 -0.079356 0.634329
0.127149 -0.078133 0.632424
0.124003 -0.078904 0.635444
0.121433 -0.077669 0.636374
0.120768 -0.078352 0.639055
0.120434 -0.078598 0.637610
0.119321 -0.077748 0.636828
0.116836 -0.077906 0.638507
0.116325 -0.077397 0.639113
0.114886 -0.078789 0.639793
0.114467 -0.076870 0.639317
0.111138 -0.077941 0.641531
0.111475 -0.079800 0.640512
0.109478 -0.079462 0.641845
0.108276 -0.079204 0.641346
0.105161 -0.080431 0.643460
0.102825 -0.077568 0.643214
0.102601 -0.077600 0.642493
0.101872 -0.077818 0.641434
0.100960 -0.077526 0.641325
0.097623 -0.080228 0.642916
0.098486 -0.077673 0.643609
0.095647 -0.077589 0.642071
0.094473 -0.079158 0.641648
0.092172 -0.077716 0.643210
0.091365 -0.077566 0.642248
0.089316 -0.078767 0.639644
0.086969 -0.080248 0.641844
0.087597 -0.080167 0.641407
0.084324 -0.079173 0.640987
0.083793 -0.077763 0.641007
0.082048 -0.077891 0.639099
0.082549 -0.078636 0.639321
0.081040 -0.078466 0.639451
0.078482 -0.078079 0.635282
0.076866 -0.078496 0.636356
0.076504 -0.079385 0.635508
0.075166 -0.079262 0.635493
0.073164 -0.080453 0.634172
0.071296 -0.078795 0.631764
0.070678 -0.079383 0.630773
0.069059 -0.077979 0.629431
0.068342 -0.077826 0.628615
0.066422 -0.079307 0.629649
0.067723 -0.078828 0.625428
0.067246 -0.078350 0.628516
0.064701 -0.078983 0.623607
0.064450 -0.078736 0.623614
0.065338 -0.077647 0.622094
0.062983 -0.078627 0.619785
0.061016 -0.079855 0.619596
0.062102 -0.079214 0.618079
0.060256 -0.078133 0.617037
0.062443 -0.078815 0.615374
0.060871 -0.076370 0.614793
0.059861 -0.076901 0.612395
0.060019 -0.079017 0.612226
0.058615 -0.078105 0.609728
0.058024 -0.077354 0.607627
0.057012 -0.078186 0.608128
0.055863 -0.079248 0.604545
0.058039 -0.077395 0.603173
0.057726 -0.076040 0.603069
0.057183 -0.078175 0.601662
0.056958 -0.075689 0.600218
0.058755 -0.076345 0.598473
0.055795 -0.075986 0.596164
0.057169 -0.075355 0.595032
0.058825 -0.075336 0.593402
0.057492 -0.076462 0.592424
0.058028 -0.076831 0.592037
0.058881 -0.074887 0.589624
0.059213 -0.074629 0.588388
0.060224 -0.076198 0.586981
0.061280 -0.075529 0.583954
0.060353 -0.074658 0.585030
0.061854 -0.075581 0.582288
0.062720 -0.076277 0.582666
0.061646 -0.075251 0.580787
0.064234 -0.074760 0.577902
0.063921 -0.073820 0.577873
0.064955 -0.073947 0.577351
0.065779 -0.076293 0.576110
0.067579 -0.077587 0.574709
0.068182 -0.076194 0.573673
0.067947 -0.076868 0.572739
0.068960 -0.076157 0.570743
0.072425 -0.075744 0.570270
0.071971 -0.074446 0.567766
0.074083 -0.074118 0.566955
0.073499 -0.076171 0.564407
0.074405 -0.074778 0.566797
0.076291 -0.075641 0.564218
0.078910 -0.075104 0.562464
0.079230 -0.076590 0.562700
0.080261 -0.075416 0.562218
0.081604 -0.074052 0.560626
0.082617 -0.075586 0.561352
0.085145 -0.075945 0.561517
0.084964 -0.074733 0.562316
0.087587 -0.074412 0.559522
0.088207 -0.076082 0.557924
0.090526 -0.075655 0.558777
0.089128 -0.074769 0.559284
0.092215 -0.075519 0.559108
0.095460 -0.075320 0.557159
0.095966 -0.075676 0.555556
0.096794 -0.075537 0.558189
0.096631 -0.074558 0.558616
0.099316 -0.076741 0.556743
0.100796 -0.073365 0.557649
0.102474 -0.073282 0.558503
0.103959 -0.075207 0.556724
0.106122 -0.073930 0.558054
0.107153 -0.075079 0.558085
0.111453 -0.075504 0.559134
0.108781 -0.077037 0.556569
0.110909 -0.076737 0.559447
0.114430 -0.074645 0.558777
0.115769 -0.073612 0.560547
0.115420 -0.075266 0.561673
0.117224 -0.073988 0.562445
0.117752 -0.076365 0.561463
0.119828 -0.073504 0.560930
0.121630 -0.074863 0.562372
0.123057 -0.075647 0.562835
0.124638 -0.073738 0.566685
0.125542 -0.074829 0.566942
0.126327 -0.076385 0.565456
0.128216 -0.074715 0.565836
0.128338 -0.074491 0.567532
0.131179 -0.074076 0.570770
0.133593 -0.074414 0.569720
0.131585 -0.075612 0.572889
0.132267 -0.075294 0.571518
0.132063 -0.073357 0.575894
0.132911 -0.076912 0.574870
0.134395 -0.073688 0.575766
0.136112 -0.075880 0.577040
0.137341 -0.076146 0.577523
0.139376 -0.076113 0.577864
0.138526 -0.074983 0.582639
0.139815 -0.075012 0.583011
0.138262 -0.075256 0.583718
0.140763 -0.075922 0.584439
0.140675 -0.075735 0.586020
0.142020 -0.073307 0.587117
0.141802 -0.075695 0.591332
0.142236 -0.076031 0.590648
0.142167 -0.075334 0.592340
0.141244 -0.074668 0.595070
0.140719 -0.075112 0.595160
0.141233 -0.074899 0.598265
0.142860 -0.075360 0.596862
0.142557 -0.074881 0.600147
0.142905 -0.075735 0.599875
0.142524 -0.075166 0.603174
0.143679 -0.073844 0.604790
0.141593 -0.074210 0.605662
0.142089 -0.076146 0.606907
0.141274 -0.076221 0.609334
0.140202 -0.076029 0.610477
0.140435 -0.075838 0.611958
0.140191 -0.076323 0.612600
0.138831 -0.073211 0.612896
0.140904 -0.074061 0.616064
0.137846 -0.075500 0.617474
0.140975 -0.074959 0.616739
0.137688 -0.074763 0.619559
0.136873 -0.074223 0.618502
0.135410 -0.075551 0.624369
0.135140 -0.074659 0.623934
0.136159 -0.073617 0.624727
0.132760 -0.075014 0.627257
0.130539 -0.074047 0.627171
0.131518 -0.075021 0.628435
0.130622 -0.073651 0.629596
0.130115 -0.073701 0.630902
0.127905 -0.075235 0.631488
0.128465 -0.073635 0.631290
0.127323 -0.073780 0.631365
0.125087 -0.073866 0.635246
0.124289 -0.077344 0.634530
0.123189 -0.076281 0.635024
0.121185 -0.073984 0.636249
0.119410 -0.075257 0.638026
0.120141 -0.074366 0.638117
0.118112 -0.075008 0.639350
0.115573 -0.076928 0.639990
0.116198 -0.076348 0.642630
0.114166 -0.076467 0.639425
0.111399 -0.075566 0.641229
0.109175 -0.075990 0.641011
0.107698 -0.073943 0.641606
0.106399 -0.076031 0.639780
0.107077 -0.075871 0.641474
0.105661 -0.075362 0.643026
0.101766 -0.075333 0.641948
0.100759 -0.076668 0.641886
0.098861 -0.077059 0.643269
0.098442 -0.075442 0.641911
0.097175 -0.076625 0.641967
0.096395 -0.075322 0.641861
0.094184 -0.074655 0.642304
0.093121 -0.076049 0.642273
0.092865 -0.075673 0.641653
0.090064 -0.073704 0.640955
0.088199 -0.074473 0.641905
0.086524 -0.074228 0.640985
0.085298 -0.075879 0.640093
0.086286 -0.075529 0.640947
0.083316 -0.075478 0.638564
0.081631 -0.075778 0.639982
0.079524 -0.072706 0.637355
0.077763 -0.076513 0.637195
0.077840 -0.075019 0.636922
0.076719 -0.075041 0.634169
0.076257 -0.075457 0.633635
0.074198 -0.075418 0.632716
0.072008 -0.076491 0.630812
0.071717 -0.076871 0.632279
0.073046 -0.075065 0.630090
0.068600 -0.075791 0.629204
0.067680 -0.074016 0.628333
0.067763 -0.075595 0.626639
0.067441 -0.074834 0.624846
0.064104 -0.075724 0.623919
0.065201 -0.076000 0.624532
0.063427 -0.074783 0.621343
0.062357 -0.075634 0.622134
0.062742 -0.075164 0.620626
0.062432 -0.075242 0.620011
0.061118 -0.075428 0.618661
0.060231 -0.075450 0.616444
0.059371 -0.073845 0.614638
0.060205 -0.074995 0.613101
0.059570 -0.075503 0.613848
0.059181 -0.074216 0.612031
0.057691 -0.075950 0.608297
0.057686 -0.075006 0.607849
0.055712 -0.074939 0.605680
0.057441 -0.075101 0.604334
0.056942 -0.074565 0.600974
0.057011 -0.074521 0.602541
0.055965 -0.070912 0.598362
0.058915 -0.071432 0.598313
0.058305 -0.071790 0.596100
0.056755 -0.071559 0.598205
0.059451 -0.072774 0.593429
0.056313 -0.073246 0.592509
0.057317 -0.071869 0.590447
0.057276 -0.074008 0.591292
0.060255 -0.068973 0.587895
0.061410 -0.072416 0.588352
0.060259 -0.071369 0.585540
0.059376 -0.070462 0.583833
0.061280 -0.069477 0.583218
0.061705 -0.071528 0.581171
0.063980 -0.070950 0.580830
0.064978 -0.072620 0.578930
0.062997 -0.069730 0.574512
0.065019 -0.070373 0.576341
0.065803 -0.071940 0.576035
0.065146 -0.072406 0.575370
0.066852 -0.070824 0.572174
0.070450 -0.074149 0.572232
0.068140 -0.072673 0.570395
0.070856 -0.071614 0.568287
0.071007 -0.072363 0.566589
0.072878 -0.073189 0.567894
0.073384 -0.073661 0.568041
0.073942 -0.073451 0.564186
0.076573 -0.072841 0.565600
0.078951 -0.073100 0.562631
0.079846 -0.071513 0.561540
0.079516 -0.070757 0.565232
0.081130 -0.072593 0.561986
0.082430 -0.073042 0.561595
0.084097 -0.070041 0.562226
0.085624 -0.070622 0.559339
0.085032 -0.071089 0.560553
0.091097 -0.074091 0.559290
0.091995 -0.073172 0.559349
0.090845 -0.072583 0.558156
0.093115 -0.070039 0.557363
0.095747 -0.071778 0.558324
0.095311 -0.071768 0.556489
0.099086 -0.071303 0.557799
0.098323 -0.072399 0.559563
0.101032 -0.072016 0.557681
0.101235 -0.070860 0.559453
0.103910 -0.070963 0.558936
0.105590 -0.072022 0.557576
0.105455 -0.072589 0.557996
0.106147 -0.071810 0.560639
0.108770 -0.071858 0.557142
0.110428 -0.071756 0.560926
0.112116 -0.073108 0.558214
0.112765 -0.072041 0.561241
0.115506 -0.072283 0.558967
0.115056 -0.073656 0.560230
0.117863 -0.072871 0.562881
0.118088 -0.072931 0.561470
0.119455 -0.073209 0.562393
0.120732 -0.070309 0.563395
0.121014 -0.071641 0.564222
0.122398 -0.069599 0.565523
0.125258 -0.071222 0.564797
0.126409 -0.071603 0.567484
0.127221 -0.071792 0.566629
0.128374 -0.072735 0.567731
0.130296 -0.072621 0.569330
0.130780 -0.072047 0.569389
0.131145 -0.070468 0.572676
0.132203 -0.072756 0.571017
0.133432 -0.072078 0.573676
0.133972 -0.070299 0.575888
0.136014 -0.070047 0.576035
0.134776 -0.071961 0.576549
0.136198 -0.071343 0.579551
0.137671 -0.072765 0.580494
0.135041 -0.070646 0.582841
0.139049 -0.071570 0.582659
0.138867 -0.071051 0.583447
0.137413 -0.071687 0.587221
0.141011 -0.071986 0.587780
0.140036 -0.071869 0.588705
0.141827 -0.073343 0.590961
0.140703 -0.071858 0.591850
0.142035 -0.073029 0.592501
0.140358 -0.072557 0.594094
0.140434 -0.071729 0.595201
0.142106 -0.071494 0.598702
0.141920 -0.071238 0.598012
0.143742 -0.070943 0.600483
0.141092 -0.073494 0.601905
0.141691 -0.072064 0.602850
0.142120 -0.072393 0.605311
0.140379 -0.073238 0.606679
0.142123 -0.070581 0.607122
0.141093 -0.070815 0.608047
0.143355 -0.072560 0.610216
0.139642 -0.072035 0.610913
0.140889 -0.071789 0.611129
0.138088 -0.072419 0.612382
0.138159 -0.072318 0.616501
0.138037 -0.072030 0.616099
0.138021 -0.072182 0.620117
0.138259 -0.072242 0.620422
0.137206 -0.071817 0.622728
0.135898 -0.068748 0.623923
0.134876 -0.074032 0.623370
0.133582 -0.072509 0.625516
0.134154 -0.072492 0.626486
0.132751 -0.071047 0.627422
0.132110 -0.072109 0.627479
0.129292 -0.071949 0.630395
0.130373 -0.071672 0.630747
0.128372 -0.071057 0.631975
0.127704 -0.070944 0.633292
0.126867 -0.071401 0.633607
0.126331 -0.072301 0.633080
0.124187 -0.072838 0.635893
0.122304 -0.071965 0.636803
0.120619 -0.071507 0.636632
0.120350 -0.071158 0.636427
0.118707 -0.072057 0.635981
0.116971 -0.070519 0.636982
0.115804 -0.070793 0.639619
0.114906 -0.071837 0.641243
0.113453 -0.070985 0.640212
0.112062 -0.073546 0.641130
0.111096 -0.072485 0.640624
0.108563 -0.071698 0.640256
0.107133 -0.072091 0.643801
0.106700 -0.073548 0.642335
0.104052 -0.070311 0.643461
0.101691 -0.070792 0.643189
0.102234 -0.071676 0.641267
0.098977 -0.073125 0.641381
0.097196 -0.071779 0.644398
0.096654 -0.072468 0.641671
0.096929 -0.071647 0.642574
0.093836 -0.073033 0.642382
0.090819 -0.071573 0.642930
0.091624 -0.071829 0.641316
0.091102 -0.071452 0.642941
0.088286 -0.070843 0.640965
0.088988 -0.071440 0.642141
0.084431 -0.072321 0.638999
0.085195 -0.072225 0.639893
0.083353 -0.070500 0.639193
0.081563 -0.071192 0.637736
0.078065 -0.071618 0.637223
0.078724 -0.073368 0.634346
0.079706 -0.072692 0.635813
0.077372 -0.073534 0.635422
0.074901 -0.071863 0.633808
0.074496 -0.070914 0.634825
0.072495 -0.074190 0.631339
0.071449 -0.073613 0.632368
0.068828 -0.071707 0.629526
0.069233 -0.070026 0.630381
0.069200 -0.071791 0.629118
0.067303 -0.071612 0.626785
0.065294 -0.073098 0.626110
0.065319 -0.071694 0.625064
0.065384 -0.073290 0.623441
0.063654 -0.071901 0.621751
0.062546 -0.070476 0.620351
0.062371 -0.071357 0.619322
0.060108 -0.071210 0.619748
0.061885 -0.071396 0.617203
0.060262 -0.072288 0.615550
0.060659 -0.072480 0.615566
0.059970 -0.069455 0.611152
0.060507 -0.070698 0.611598
0.057731 -0.070111 0.610740
0.057912 -0.072902 0.609848
0.057388 -0.073192 0.607544
0.057564 -0.071861 0.604076
0.058409 -0.071540 0.603747
0.055521 -0.072138 0.602062
0.056710 -0.072666 0.602168
0.056609 -0.067701 0.600402
0.059787 -0.067951 0.598179
0.057463 -0.067554 0.597269
0.056544 -0.068469 0.596418
0.058428 -0.068153 0.594811
0.058259 -0.069183 0.593435
0.058747 -0.069122 0.591288
0.058107 -0.068446 0.590304
0.061378 -0.066989 0.587338
0.059053 -0.068940 0.585930
0.060654 -0.067631 0.585025
0.061174 -0.067067 0.585737
0.062179 -0.068479 0.581900
0.061870 -0.067744 0.581123
0.061648 -0.067595 0.581440
0.063096 -0.068459 0.578095
0.064016 -0.068293 0.576903
0.063718 -0.069014 0.575326
0.065709 -0.068678 0.575439
0.066470 -0.068795 0.571712
0.068208 -0.068418 0.572530
0.069227 -0.069813 0.570460
0.070471 -0.068951 0.571104
0.070479 -0.068373 0.570680
0.071356 -0.067481 0.569130
0.071818 -0.069330 0.567034
0.073180 -0.068749 0.567950
0.074853 -0.067951 0.566286
0.075367 -0.068820 0.563630
0.078806 -0.068977 0.563381
0.078865 -0.068439 0.562996
0.079615 -0.068977 0.562829
0.081448 -0.068601 0.563022
0.082434 -0.068876 0.561291
0.084361 -0.066683 0.560290
0.084240 -0.069398 0.561023
0.085511 -0.067621 0.559267
0.087569 -0.068577 0.560084
0.090186 -0.068890 0.559495
0.090166 -0.067477 0.559009
0.094169 -0.067966 0.557882
0.094060 -0.068663 0.558646
0.096476 -0.068321 0.557564
0.097488 -0.067759 0.557042
0.099007 -0.068041 0.558712
0.099752 -0.067027 0.556175
0.102172 -0.066225 0.556939
0.102920 -0.070340 0.557374
0.105465 -0.068042 0.558098
0.105907 -0.069125 0.558300
0.108400 -0.068033 0.556787
0.110051 -0.069186 0.558856
0.109444 -0.069413 0.558288
0.113306 -0.070472 0.559092
0.113175 -0.067503 0.559868
0.115443 -0.066904 0.560219
0.115344 -0.068653 0.560474
0.118999 -0.068556 0.559993
0.120025 -0.068397 0.563673
0.118807 -0.068402 0.561871
0.120258 -0.069032 0.564494
0.122729 -0.068383 0.563508
0.125196 -0.069007 0.565569
0.122726 -0.067272 0.563640
0.126825 -0.067397 0.566262
0.127653 -0.068772 0.566824
0.127990 -0.067327 0.568948
0.128247 -0.067975 0.570680
0.132248 -0.069501 0.567301
0.131898 -0.068776 0.571379
0.131955 -0.068527 0.572424
0.133398 -0.067260 0.572714
0.132055 -0.068353 0.574247
0.136356 -0.068712 0.574821
0.136846 -0.067305 0.577733
0.136494 -0.068776 0.579442
0.139065 -0.067523 0.582277
0.139993 -0.070427 0.579543
0.139832 -0.067503 0.582819
0.139370 -0.069892 0.584289
0.139023 -0.067699 0.585983
0.140900 -0.068829 0.586679
0.140951 -0.068959 0.590071
0.139664 -0.068144 0.590976
0.140511 -0.067495 0.591023
0.141810 -0.068445 0.593342
0.142758 -0.069491 0.595591
0.142786 -0.069530 0.593759
0.141494 -0.069566 0.596329
0.142460 -0.070513 0.597792
0.141977 -0.068597 0.599990
0.141959 -0.068002 0.600674
0.143394 -0.067885 0.604398
0.140311 -0.070175 0.605875
0.140837 -0.068578 0.605774
0.140466 -0.068298 0.607191
0.141584 -0.068080 0.609162
0.140137 -0.067372 0.610993
0.139539 -0.068508 0.611808
0.140456 -0.069451 0.614443
0.140279 -0.068369 0.614092
0.140035 -0.068609 0.617099
0.139597 -0.066954 0.616070
0.137017 -0.069910 0.618238
0.136697 -0.066902 0.620447
0.137520 -0.069948 0.622838
0.135703 -0.069963 0.621255
0.135140 -0.067644 0.624921
0.136896 -0.068840 0.626730
0.134044 -0.069214 0.623969
0.133606 -0.069590 0.627103
0.129970 -0.067667 0.627364
0.130782 -0.069658 0.629427
0.131206 -0.069058 0.629426
0.127711 -0.069724 0.631289
0.127600 -0.068719 0.633973
0.126762 -0.067770 0.636572
0.124668 -0.069389 0.633143
0.122787 -0.067692 0.636271
0.120982 -0.068271 0.636375
0.120396 -0.068481 0.635871
0.119995 -0.068979 0.637220
0.118075 -0.067031 0.638042
0.119540 -0.068764 0.639302
0.116613 -0.068154 0.641696
0.114518 -0.069018 0.639211
0.111472 -0.068248 0.641111
0.111669 -0.068513 0.640815
0.110723 -0.067358 0.640392
0.110014 -0.069544 0.641984
0.107591 -0.069602 0.641299
0.108192 -0.067466 0.643060
0.105813 -0.069550 0.641861
0.103479 -0.067634 0.641861
0.100054 -0.069225 0.642312
0.100246 -0.068371 0.644854
0.097736 -0.068669 0.641538
0.097359 -0.069647 0.641690
0.095048 -0.067420 0.642733
0.093322 -0.070501 0.642693
0.093513 -0.068164 0.643143
0.090532 -0.068435 0.642042
0.088206 -0.069027 0.642341
0.087184 -0.069103 0.639159
0.087061 -0.068281 0.640819
0.084957 -0.068475 0.641413
0.083863 -0.066462 0.640189
0.082390 -0.069629 0.639922
0.080225 -0.068156 0.638449
0.079972 -0.068790 0.637304
0.078292 -0.070591 0.637148
0.076388 -0.069653 0.636689
0.076730 -0.068321 0.636110
0.074539 -0.068167 0.635614
0.073805 -0.068213 0.633845
0.072990 -0.069999 0.634232
0.072186 -0.069189 0.631896
0.069175 -0.068963 0.631011
0.069877 -0.069618 0.631568
0.067582 -0.070326 0.626920
0.067940 -0.066877 0.626796
0.068130 -0.067994 0.626855
0.065404 -0.068700 0.624428
0.065897 -0.069367 0.622290
0.063819 -0.068100 0.622514
0.063600 -0.067692 0.621969
0.063091 -0.067777 0.621682
0.060594 -0.071056 0.618068
0.060775 -0.069544 0.617761
0.061542 -0.068645 0.614570
0.060648 -0.068675 0.613458
0.057862 -0.068373 0.613931
0.057739 -0.069423 0.612224
0.058480 -0.069679 0.609072
0.058656 -0.068175 0.607511
0.058641 -0.067805 0.608873
0.059091 -0.068979 0.606280
0.059927 -0.068125 0.603945
0.055344 -0.068680 0.603671
0.056992 -0.067555 0.601321
0.055767 -0.064759 0.597350
0.057258 -0.065018 0.598529
0.057325 -0.065988 0.597092
0.058070 -0.064609 0.594847
0.058864 -0.065229 0.595075
0.057701 -0.065390 0.593223
0.059673 -0.065392 0.590312
0.057556 -0.063960 0.589141
0.058031 -0.065690 0.587224
0.060456 -0.065098 0.585562
0.058230 -0.063206 0.583236
0.062131 -0.064404 0.582912
0.061654 -0.066355 0.582666
0.061372 -0.063327 0.580500
0.061997 -0.066102 0.579774
0.061742 -0.064720 0.578115
0.063358 -0.065887 0.577556
0.065925 -0.066241 0.574851
0.066090 -0.064621 0.572432
0.068112 -0.066081 0.573949
0.067997 -0.066704 0.571551
0.067075 -0.064912 0.571979
0.069394 -0.063981 0.571202
0.069261 -0.064411 0.569050
0.071850 -0.065352 0.567975
0.073100 -0.065098 0.566336
0.073392 -0.065081 0.565936
0.074721 -0.064581 0.565975
0.076942 -0.064941 0.563945
0.077642 -0.066643 0.564551
0.078131 -0.066265 0.563292
0.077833 -0.065299 0.563339
0.081095 -0.063812 0.561550
0.083168 -0.063470 0.561117
0.082739 -0.063416 0.561062
0.085615 -0.065402 0.562053
0.087503 -0.065645 0.561662
0.088517 -0.065108 0.557838
0.091977 -0.065709 0.557369
0.092511 -0.066954 0.558414
0.092315 -0.063088 0.558340
0.092752 -0.064097 0.556251
0.095045 -0.066657 0.556368
0.094762 -0.065068 0.558340
0.099174 -0.065561 0.555959
0.099966 -0.066272 0.558990
0.102337 -0.065819 0.557765
0.102052 -0.067071 0.558814
0.104519 -0.065778 0.557873
0.105545 -0.062872 0.557760
0.105184 -0.065020 0.556875
0.108663 -0.066186 0.557771
0.110698 -0.064419 0.558322
0.111308 -0.065733 0.560333
0.114773 -0.063581 0.557860
0.113888 -0.064552 0.558713
0.116819 -0.066392 0.560217
0.116076 -0.066044 0.562996
0.118739 -0.064399 0.563065
0.120230 -0.064428 0.562200
0.120723 -0.064640 0.563569
0.123214 -0.065572 0.562531
0.124629 -0.064179 0.564267
0.123438 -0.064645 0.565621
0.126780 -0.065793 0.566809
0.126814 -0.064706 0.566741
0.129398 -0.065904 0.566380
0.129364 -0.062933 0.570440
0.130115 -0.065773 0.569035
0.131446 -0.066466 0.570730
0.132671 -0.065645 0.573094
0.132882 -0.065436 0.574731
0.134529 -0.065897 0.574235
0.133783 -0.064940 0.575167
0.136959 -0.065921 0.579006
0.138691 -0.065989 0.577804
0.137695 -0.065108 0.579885
0.136034 -0.065196 0.581176
0.139563 -0.063946 0.583034
0.140572 -0.066393 0.584301
0.139840 -0.064910 0.586845
0.142663 -0.063774 0.588113
0.140278 -0.064733 0.589732
0.140811 -0.063514 0.589096
0.140433 -0.065389 0.590484
0.141625 -0.065614 0.591998
0.142552 -0.065287 0.593495
0.141148 -0.065203 0.595479
0.143014 -0.066028 0.596706
0.143076 -0.066651 0.598839
0.142623 -0.064534 0.599369
0.143485 -0.064806 0.601910
0.142744 -0.065569 0.602413
0.142510 -0.065472 0.603441
0.142135 -0.065631 0.603333
0.143148 -0.063768 0.606142
0.141659 -0.066326 0.609244
0.141180 -0.065284 0.610623
0.139393 -0.065904 0.611677
0.140678 -0.066480 0.615370
0.140519 -0.066055 0.615525
0.138410 -0.064798 0.615834
0.139163 -0.065367 0.617291
0.135652 -0.066142 0.618408
0.137398 -0.066935 0.621571
0.137904 -0.063689 0.621581
0.135178 -0.063485 0.620668
0.135757 -0.065717 0.623859
0.133985 -0.066344 0.625650
0.134105 -0.066007 0.625180
0.133145 -0.062680 0.626625
0.132943 -0.066713 0.627907
0.131059 -0.064226 0.629757
0.128012 -0.066639 0.630843
0.129674 -0.064474 0.631773
0.125893 -0.063986 0.631728
0.126517 -0.065055 0.633438
0.125152 -0.065729 0.634532
0.123486 -0.063458 0.635464
0.122932 -0.063460 0.635466
0.120879 -0.064295 0.636096
0.120790 -0.063296 0.638270
0.119792 -0.063773 0.638091
0.118485 -0.065944 0.638780
0.116183 -0.065160 0.637569
0.115421 -0.065378 0.639534
0.113438 -0.064908 0.641844
0.113139 -0.063420 0.639228
0.109350 -0.064400 0.642547
0.109975 -0.064702 0.641893
0.107670 -0.064396 0.641626
0.106564 -0.066006 0.642791
0.104960 -0.063764 0.642064
0.101087 -0.065126 0.643453
0.101701 -0.064888 0.641750
0.098132 -0.066814 0.641913
0.098877 -0.064860 0.641940
0.097854 -0.064946 0.642169
0.094673 -0.065052 0.641405
0.093284 -0.066618 0.641908
0.092916 -0.064346 0.640600
0.091313 -0.065639 0.641070
0.091032 -0.064016 0.641534
0.089964 -0.065252 0.641126
0.086505 -0.065643 0.641576
0.086007 -0.065375 0.640545
0.083880 -0.062874 0.639995
0.082529 -0.065386 0.638227
0.080483 -0.065924 0.637558
0.080484 -0.064415 0.637940
0.080009 -0.064047 0.636294
0.077205 -0.065179 0.635251
0.078756 -0.064640 0.633920
0.074149 -0.064146 0.634021
0.073370 -0.064724 0.633750
0.074302 -0.064586 0.632339
0.073336 -0.065775 0.631444
0.070932 -0.064068 0.631103
0.069851 -0.064758 0.630397
0.068419 -0.065276 0.626948
0.068346 -0.065600 0.627613
0.066889 -0.065099 0.627189
0.068290 -0.064069 0.626847
0.065272 -0.063916 0.624081
0.063880 -0.065641 0.623187
0.062511 -0.064295 0.619249
0.060532 -0.064853 0.618277
0.061607 -0.063625 0.618902
0.060262 -0.064051 0.617265
0.060145 -0.066582 0.616996
0.059633 -0.064101 0.614425
0.059756 -0.067041 0.612075
0.060191 -0.065236 0.610983
0.059549 -0.065434 0.611020
0.059755 -0.063894 0.608408
0.060989 -0.065326 0.608107
0.058827 -0.067099 0.605962
0.058518 -0.065381 0.603413
0.057036 -0.064446 0.602004
0.057445 -0.066543 0.602228
0.058299 -0.062776 0.599479
0.058361 -0.062702 0.599275
0.056683 -0.062481 0.595844
0.057274 -0.062148 0.595243
0.058816 -0.061721 0.593337
0.057639 -0.061468 0.593046
0.059977 -0.059888 0.591930
0.060348 -0.060887 0.589672
0.057465 -0.060728 0.590164
0.060162 -0.062127 0.588048
0.056778 -0.059101 0.585221
0.060755 -0.061051 0.584482
0.060964 -0.061262 0.581757
0.060845 -0.062285 0.582726
0.063484 -0.060395 0.579776
0.062904 -0.062251 0.578715
0.062363 -0.062863 0.577476
0.063293 -0.061048 0.577499
0.064897 -0.062008 0.575868
0.066536 -0.060980 0.573110
0.068062 -0.062655 0.572215
0.068316 -0.063361 0.571130
0.069260 -0.062558 0.570350
0.070747 -0.060220 0.570247
0.071057 -0.061876 0.570698
0.072776 -0.059357 0.566167
0.073607 -0.062991 0.565426
0.073825 -0.062253 0.565655
0.076588 -0.060195 0.564664
0.076573 -0.062902 0.563841
0.079438 -0.061454 0.563855
0.079681 -0.061094 0.562708
0.081232 -0.063042 0.563392
0.081983 -0.060732 0.561619
0.084707 -0.061176 0.561618
0.085759 -0.062237 0.559088
0.086321 -0.060334 0.560685
0.088426 -0.062807 0.558871
0.090675 -0.061002 0.559329
0.091158 -0.061317 0.558776
0.092122 -0.061744 0.559087
0.095833 -0.063138 0.557987
0.096045 -0.060483 0.558312
0.095956 -0.061395 0.556510
0.098078 -0.061429 0.556884
0.100680 -0.062307 0.558508
0.101152 -0.061561 0.556535
0.102484 -0.061688 0.557811
0.104441 -0.061058 0.558978
0.107026 -0.060823 0.558081
0.107618 -0.059873 0.558591
0.108990 -0.061837 0.557047
0.108153 -0.061055 0.558460
0.112989 -0.061164 0.557229
0.112449 -0.061683 0.559512
0.115331 -0.062307 0.559989
0.115446 -0.060213 0.560616
0.118416 -0.060006 0.560658
0.118996 -0.060555 0.562052
0.121532 -0.060333 0.565294
0.121348 -0.061661 0.563703
0.122509 -0.061370 0.561908
0.124850 -0.062155 0.565082
0.125904 -0.061935 0.567740
0.126461 -0.061376 0.567721
0.126904 -0.060790 0.567955
0.126490 -0.062991 0.567627
0.128532 -0.063011 0.570032
0.129066 -0.061753 0.570243
0.130823 -0.060938 0.571792
0.133553 -0.061656 0.573894
0.134458 -0.062337 0.573971
0.134755 -0.061119 0.574987
0.136271 -0.059565 0.575646
0.137669 -0.060191 0.577572
0.135292 -0.061955 0.578463
0.136940 -0.060879 0.580405
0.138083 -0.061623 0.583448
0.139019 -0.062189 0.584456
0.138996 -0.062893 0.584839
0.139208 -0.062798 0.584127
0.138549 -0.062759 0.586229
0.141770 -0.060759 0.588959
0.144070 -0.061453 0.590669
0.142603 -0.060478 0.592626
0.141576 -0.062919 0.591259
0.141981 -0.062894 0.594316
0.141999 -0.063162 0.597291
0.140500 -0.060033 0.598435
0.142450 -0.060403 0.598883
0.143175 -0.063395 0.599972
0.141911 -0.062267 0.601751
0.143350 -0.062292 0.601945
0.141996 -0.061360 0.603500
0.143247 -0.061375 0.606777
0.142044 -0.060056 0.607508
0.139212 -0.062691 0.608548
0.143125 -0.062477 0.612387
0.141116 -0.059942 0.611899
0.140297 -0.063017 0.612899
0.139524 -0.062228 0.615913
0.139702 -0.061962 0.616164
0.140086 -0.061926 0.617486
0.137912 -0.062943 0.618350
0.137152 -0.061460 0.620765
0.134294 -0.064254 0.622342
0.138242 -0.061656 0.622741
0.135157 -0.063646 0.622503
0.133521 -0.060530 0.627353
0.131686 -0.062693 0.625451
0.133055 -0.061997 0.628200
0.132431 -0.060676 0.628832
0.131056 -0.061092 0.630417
0.131067 -0.062302 0.629374
0.129128 -0.062011 0.632763
0.128085 -0.061972 0.630667
0.126176 -0.061500 0.632397
0.126968 -0.061517 0.634328
0.123330 -0.061283 0.637388
0.123436 -0.062793 0.636291
0.121836 -0.061477 0.636498
0.120136 -0.061743 0.638727
0.118747 -0.062626 0.639186
0.116461 -0.060189 0.636887
0.116753 -0.061002 0.641420
0.114937 -0.060962 0.640093
0.114899 -0.060363 0.639452
0.112492 -0.062437 0.640969
0.108922 -0.061070 0.642047
0.108010 -0.061182 0.642708
0.109014 -0.062163 0.641007
0.105896 -0.061349 0.645385
0.104256 -0.062618 0.642542
0.100741 -0.062530 0.643798
0.099519 -0.061303 0.640387
0.100983 -0.059435 0.642601
0.097884 -0.062748 0.641738
0.095433 -0.063236 0.642735
0.096372 -0.061999 0.640941
0.093169 -0.061331 0.643398
0.092463 -0.061966 0.642216
0.091732 -0.061002 0.642849
0.089795 -0.061840 0.639925
0.089038 -0.062223 0.640638
0.086362 -0.062117 0.639203
0.086819 -0.061442 0.639743
0.083734 -0.061869 0.638900
0.081969 -0.061681 0.639503
0.078615 -0.061868 0.638059
0.080997 -0.063809 0.638326
0.077078 -0.060409 0.636149
0.077596 -0.061253 0.635695
0.076467 -0.061901 0.637354
0.075621 -0.061304 0.632940
0.075395 -0.061125 0.633674
0.071900 -0.063487 0.632984
0.071911 -0.061607 0.630462
0.070497 -0.062938 0.630805
0.070024 -0.059506 0.628829
0.069666 -0.060748 0.629350
0.068058 -0.060535 0.627328
0.066886 -0.060846 0.625333
0.066957 -0.060271 0.624356
0.066388 -0.062141 0.623736
0.065446 -0.062482 0.623681
0.063373 -0.061852 0.623251
0.062726 -0.060355 0.620268
0.061119 -0.062589 0.618804
0.060875 -0.061861 0.617705
0.060301 -0.061457 0.618046
0.062104 -0.061493 0.613873
0.060137 -0.059018 0.612201
0.057735 -0.062272 0.612005
0.058936 -0.061953 0.609420
0.059463 -0.060845 0.607532
0.057083 -0.059842 0.606122
0.056774 -0.059609 0.608224
0.057485 -0.061642 0.604312
0.057792 -0.062972 0.603746
0.057876 -0.060629 0.601098
0.056243 -0.058338 0.599268
0.058534 -0.057779 0.598853
0.057002 -0.060145 0.597075
0.058122 -0.060710 0.596925
0.055423 -0.058663 0.592866
0.056785 -0.058835 0.593070
0.058583 -0.059789 0.589708
0.059146 -0.057430 0.587986
0.062371 -0.058298 0.589017
0.060749 -0.057469 0.584212
0.060070 -0.057752 0.586817
0.061620 -0.059520 0.583810
0.059822 -0.057975 0.580724
0.061725 -0.058491 0.582087
0.062884 -0.057089 0.580991
0.060322 -0.058942 0.579961
0.062613 -0.057454 0.576717
0.064258 -0.057803 0.576177
0.065983 -0.057331 0.574302
0.066891 -0.058491 0.573385
0.068984 -0.059220 0.571835
0.068663 -0.058203 0.572203
0.070825 -0.057386 0.571083
0.071049 -0.060081 0.569392
0.072758 -0.058745 0.568331
0.071467 -0.057429 0.566843
0.073620 -0.058483 0.566846
0.074431 -0.057349 0.566305
0.075832 -0.058832 0.564939
0.077725 -0.058521 0.562948
0.080105 -0.058197 0.563200
0.079544 -0.058196 0.561141
0.081646 -0.057835 0.562053
0.082742 -0.058029 0.560688
0.083509 -0.058798 0.562002
0.086314 -0.057334 0.559000
0.085721 -0.057599 0.558703
0.089055 -0.061597 0.559801
0.089373 -0.059965 0.557579
0.090767 -0.057876 0.558262
0.092548 -0.059737 0.559327
0.094196 -0.057906 0.555728
0.093358 -0.058129 0.557307
0.097153 -0.059109 0.557933
0.096624 -0.057642 0.557055
0.100900 -0.058709 0.557929
0.100196 -0.057306 0.556627
0.103555 -0.058960 0.558286
0.104380 -0.059254 0.558836
0.106877 -0.058613 0.558824
0.108805 -0.057638 0.559945
0.108878 -0.057379 0.558399
0.109539 -0.059641 0.559344
0.110919 -0.059649 0.556734
0.115269 -0.057337 0.558993
0.115447 -0.059317 0.560556
0.117135 -0.059454 0.561687
0.115991 -0.058375 0.560833
0.118476 -0.057944 0.562590
0.119921 -0.058365 0.562435
0.122551 -0.057345 0.561763
0.122419 -0.059165 0.564509
0.125442 -0.059294 0.565018
0.125836 -0.059102 0.565529
0.125865 -0.057679 0.568637
0.126774 -0.059425 0.567934
0.128407 -0.057320 0.567042
0.129825 -0.058787 0.569204
0.129997 -0.058426 0.570058
0.131999 -0.057356 0.569608
0.133055 -0.058586 0.574426
0.132722 -0.058895 0.572632
0.134238 -0.058751 0.575331
0.134794 -0.058414 0.575206
0.137018 -0.060920 0.578018
0.136770 -0.057267 0.580562
0.137920 -0.059582 0.580271
0.136815 -0.057785 0.581964
0.139346 -0.059271 0.583537
0.138706 -0.059189 0.583273
0.139723 -0.058221 0.585424
0.141762 -0.057205 0.587101
0.139763 -0.059662 0.589416
0.142216 -0.058601 0.589689
0.140476 -0.057845 0.588642
0.144977 -0.057560 0.593054
0.143209 -0.058836 0.594234
0.142849 -0.058086 0.595599
0.141312 -0.057152 0.596923
0.141296 -0.058049 0.598712
0.142378 -0.058581 0.599005
0.142778 -0.059256 0.602998
0.143068 -0.058236 0.603913
0.142332 -0.058983 0.604387
0.143730 -0.059544 0.604616
0.140810 -0.059087 0.606771
0.141476 -0.058775 0.608370
0.143420 -0.058255 0.608441
0.139905 -0.057185 0.612030
0.140508 -0.057670 0.611621
0.139987 -0.058961 0.613763
0.138472 -0.057471 0.616909
0.139157 -0.057468 0.615743
0.137932 -0.057310 0.619460
0.137150 -0.058639 0.620036
0.139124 -0.059282 0.621608
0.135185 -0.059785 0.622766
0.134644 -0.059135 0.623107
0.135812 -0.058433 0.626279
0.135615 -0.059028 0.626244
0.132443 -0.057487 0.628658
0.132054 -0.058965 0.628354
0.131131 -0.058766 0.629247
0.128791 -0.058788 0.628988
0.128211 -0.056901 0.632230
0.127855 -0.057420 0.631348
0.127714 -0.059073 0.634084
0.126385 -0.059485 0.633847
0.122774 -0.058436 0.637605
0.121564 -0.056660 0.634981
0.121549 -0.057489 0.634583
0.119585 -0.057905 0.638070
0.119361 -0.059564 0.638323
0.116046 -0.055993 0.639342
0.116555 -0.059339 0.638692
0.113469 -0.060608 0.639614
0.113007 -0.055835 0.640655
0.112051 -0.058138 0.642718
0.109747 -0.058928 0.639725
0.109541 -0.058089 0.640151
0.107113 -0.060239 0.642308
0.106348 -0.058897 0.642041
0.105414 -0.059213 0.641902
0.102558 -0.057673 0.641705
0.102355 -0.057779 0.643802
0.100567 -0.058879 0.642973
0.098133 -0.059217 0.643115
0.096741 -0.056880 0.640885
0.094922 -0.057464 0.642105
0.093829 -0.059197 0.643483
0.093149 -0.058959 0.641866
0.091320 -0.059611 0.642254
0.089648 -0.057978 0.638594
0.089696 -0.060162 0.640943
0.087581 -0.057723 0.638857
0.086560 -0.058193 0.642128
0.083212 -0.058064 0.638828
0.082767 -0.058354 0.639595
0.080064 -0.058103 0.639558
0.079024 -0.058359 0.637949
0.077490 -0.056463 0.636008
0.078599 -0.057446 0.635102
0.077109 -0.058106 0.636815
0.074418 -0.058541 0.634982
0.074648 -0.059974 0.632819
0.073342 -0.058752 0.632396
0.073547 -0.059902 0.629682
0.071321 -0.059386 0.629854
0.070570 -0.058557 0.627721
0.070398 -0.058542 0.627158
0.068048 -0.056482 0.627387
0.066747 -0.058703 0.625913
0.066334 -0.060023 0.625089
0.064097 -0.058749 0.624421
0.065519 -0.059500 0.621181
0.063611 -0.058793 0.620996
0.062107 -0.057641 0.621964
0.062668 -0.058454 0.618800
0.060543 -0.057048 0.617359
0.061601 -0.059412 0.615235
0.059524 -0.057807 0.612889
0.060379 -0.056016 0.614093
0.060460 -0.057559 0.612451
0.059665 -0.058660 0.609369
0.058288 -0.059346 0.609975
0.059587 -0.057292 0.606298
0.058903 -0.057612 0.606819
0.057643 -0.057880 0.604266
0.058203 -0.060681 0.603372
0.056658 -0.057480 0.601872
0.057688 -0.054994 0.599679
0.057520 -0.054000 0.598853
0.059153 -0.055000 0.598727
0.056052 -0.052883 0.597546
0.056691 -0.055011 0.595485
0.058770 -0.054648 0.592109
0.058163 -0.055985 0.591147
0.058023 -0.053713 0.590342
0.059009 -0.055097 0.588217
0.058186 -0.053609 0.588392
0.060400 -0.054711 0.586516
0.061071 -0.054188 0.582627
0.058244 -0.054828 0.582184
0.061440 -0.055359 0.581527
0.062095 -0.053476 0.580155
0.064835 -0.055803 0.579939
0.062814 -0.056173 0.578544
0.065210 -0.056789 0.575674
0.064795 -0.054765 0.577370
0.067049 -0.055564 0.574413
0.067967 -0.055502 0.574753
0.067725 -0.054284 0.571195
0.068602 -0.053215 0.570781
0.071664 -0.053652 0.568843
0.072129 -0.055600 0.566827
0.073544 -0.055114 0.568916
0.074285 -0.054513 0.567340
0.073401 -0.055356 0.565342
0.076830 -0.054262 0.565837
0.077145 -0.054905 0.563714
0.077523 -0.054520 0.561564
0.079893 -0.054534 0.564968
0.080145 -0.053731 0.562483
0.082867 -0.052812 0.559359
0.084306 -0.053556 0.559921
0.085681 -0.054749 0.559077
0.087192 -0.055621 0.558759
0.087323 -0.054085 0.559516
0.090691 -0.054543 0.558141
0.091903 -0.052248 0.557315
0.090395 -0.054961 0.558366
0.095407 -0.054665 0.557798
0.095693 -0.053916 0.557765
0.098375 -0.052955 0.557876
0.098059 -0.054534 0.557503
0.098580 -0.053689 0.557941
0.102485 -0.055193 0.555426
0.101204 -0.056155 0.556581
0.105508 -0.054249 0.557535
0.104336 -0.054393 0.557461
0.106092 -0.054422 0.558987
0.108437 -0.054847 0.558124
0.111161 -0.056307 0.558390
0.110544 -0.056193 0.558554
0.112424 -0.055719 0.559371
0.115570 -0.056525 0.562342
0.115961 -0.056217 0.560529
0.119187 -0.056814 0.559649
0.117703 -0.055468 0.563155
0.119430 -0.053952 0.562552
0.122822 -0.054177 0.562129
0.120664 -0.055428 0.562924
0.123350 -0.054902 0.564501
0.122662 -0.054989 0.565215
0.125684 -0.056159 0.565009
0.124968 -0.056039 0.565670
0.127812 -0.055064 0.569227
0.130515 -0.053521 0.570003
0.130873 -0.055138 0.568829
0.130894 -0.055917 0.571986
0.132830 -0.054694 0.571271
0.132346 -0.055055 0.575210
0.133530 -0.053971 0.575943
0.136192 -0.055058 0.576624
0.135096 -0.055453 0.578982
0.135785 -0.054036 0.578377
0.136578 -0.055813 0.579384
0.138090 -0.056255 0.580849
0.139940 -0.054577 0.581365
0.138560 -0.055290 0.585310
0.140908 -0.054104 0.586249
0.139472 -0.056276 0.584592
0.140429 -0.054732 0.589035
0.140335 -0.056049 0.591241
0.141199 -0.056146 0.591988
0.140845 -0.055584 0.593110
0.144659 -0.055407 0.594461
0.142391 -0.054560 0.594505
0.142605 -0.053712 0.597160
0.142739 -0.054648 0.598767
0.140120 -0.056712 0.598806
0.143462 -0.054509 0.601918
0.139740 -0.054792 0.603621
0.142326 -0.054901 0.603705
0.142897 -0.055092 0.606018
0.140887 -0.053624 0.607357
0.140965 -0.053243 0.609397
0.139988 -0.055117 0.608900
0.141891 -0.054570 0.611114
0.140123 -0.055882 0.612291
0.140978 -0.055490 0.613659
0.138842 -0.054877 0.616959
0.139552 -0.054136 0.616703
0.138547 -0.055634 0.616536
0.138542 -0.055678 0.617914
0.136192 -0.056476 0.621518
0.135744 -0.055575 0.623740
0.134109 -0.055027 0.624425
0.134131 -0.054768 0.624047
0.135298 -0.054790 0.626556
0.132034 -0.054482 0.626931
0.132332 -0.055027 0.627401
0.130450 -0.053282 0.629335
0.129806 -0.054708 0.630913
0.127629 -0.054553 0.630939
0.127497 -0.056675 0.634006
0.125896 -0.054368 0.632318
0.124878 -0.055397 0.635149
0.123996 -0.054667 0.634996
0.122860 -0.054281 0.636636
0.119883 -0.056511 0.638315
0.119464 -0.055690 0.637418
0.118162 -0.055966 0.638489
0.118733 -0.055167 0.639895
0.115620 -0.056402 0.639039
0.113304 -0.054785 0.638657
0.114065 -0.053615 0.641018
0.111247 -0.055216 0.643582
0.109105 -0.053735 0.642521
0.109419 -0.053488 0.642337
0.108135 -0.056129 0.639874
0.105393 -0.055767 0.642182
0.106046 -0.055019 0.640289
0.102637 -0.056535 0.642390
0.102269 -0.052877 0.644445
0.098755 -0.054595 0.642749
0.097650 -0.056534 0.644312
0.097664 -0.054049 0.641541
0.098084 -0.054081 0.641333
0.091781 -0.053494 0.640829
0.093043 -0.054050 0.641013
0.092696 -0.055499 0.642096
0.087833 -0.052992 0.639239
0.089544 -0.056401 0.641230
0.085750 -0.054998 0.641012
0.085198 -0.053109 0.640474
0.084074 -0.054783 0.641373
0.081886 -0.054541 0.638979
0.081840 -0.053850 0.636999
0.079239 -0.054698 0.639311
0.078617 -0.054596 0.635310
0.078853 -0.053713 0.635386
0.077067 -0.053664 0.636531
0.073976 -0.055928 0.632702
0.072073 -0.054406 0.634013
0.072362 -0.053476 0.632308
0.071661 -0.053931 0.632770
0.069799 -0.054227 0.629207
0.069686 -0.052597 0.629040
0.068754 -0.055118 0.628507
0.065930 -0.055649 0.627848
0.067744 -0.056590 0.626461
0.064757 -0.054772 0.624542
0.063658 -0.055959 0.624624
0.064468 -0.055868 0.621583
0.063966 -0.051262 0.621869
0.062328 -0.055547 0.619041
0.060990 -0.053995 0.618293
0.060167 -0.054497 0.617488
0.059037 -0.054695 0.615705
0.062535 -0.055387 0.614930
0.060480 -0.053076 0.612850
0.059198 -0.055449 0.611153
0.059326 -0.055442 0.610177
0.059696 -0.052372 0.608926
0.057750 -0.055410 0.608332
0.057479 -0.054707 0.605248
0.056877 -0.055261 0.604721
0.057137 -0.055724 0.603495
0.058642 -0.054467 0.601757
0.056726 -0.050573 0.599525
0.057462 -0.051021 0.598453
0.058162 -0.051634 0.597038
0.059712 -0.052446 0.595665
0.059436 -0.051452 0.594567
0.057890 -0.050789 0.593838
0.059008 -0.051671 0.591306
0.058495 -0.052608 0.589801
0.058864 -0.050305 0.587264
0.058850 -0.051826 0.585293
0.061480 -0.051922 0.586495
0.061096 -0.050680 0.584507
0.062505 -0.051883 0.582842
0.062391 -0.050606 0.582993
0.063853 -0.049975 0.580424
0.062786 -0.050493 0.579685
0.066734 -0.050565 0.576714
